ncols        420
nrows        75
xllcorner    703078.639706
yllcorner    9304057.84752
cellsize     9.991273102283
NODATA_value -32767
26 26 27 28 28 29 30 31 32 32 33 33 33 33 33 34 34 34 34 34 34 34 34 34 34 34 34 34 34 34 34 34 34 34 34 34 34 34 34 34 34 35 35 36 36 37 37 37 37 37 37 37 37 37 38 38 38 38 38 38 38 38 38 38 38 38 38 37 37 37 37 37 37 37 37 37 37 37 37 36 36 36 36 36 36 36 36 36 36 36 36 36 35 34 34 34 34 34 34 33 33 33 34 34 34 34 33 33 33 32 32 32 31 30 30 30 29 28 26 23 20 17 16 17 18 18 16 14 14 16 18 20 21 21 22 22 22 23 24 25 26 26 26 25 25 26 27 27 27 27 27 27 27 27 28 30 31 32 34 35 36 36 36 36 36 36 35 35 35 35 35 35 35 35 35 35 35 35 35 35 35 35 35 34 34 34 34 34 34 34 34 34 34 34 34 34 34 34 34 34 34 34 35 35 35 35 35 35 35 35 35 35 35 35 34 34 34 34 34 34 34 34 34 34 34 34 34 34 34 34 34 33 33 33 33 33 33 33 33 33 32 32 32 32 32 32 32 32 32 32 32 32 32 32 32 32 32 32 32 32 32 32 32 32 32 32 32 32 32 32 32 32 31 31 31 30 30 31 31 31 31 31 31 31 31 31 31 31 31 31 31 31 31 31 31 30 30 30 30 30 30 30 31 31 32 32 32 32 31 31 31 31 31 30 29 29 28 27 27 27 27 27 27 27 27 27 26 26 26 26 26 26 27 28 29 31 31 32 32 32 32 32 32 32 31 31 31 31 31 31 30 30 29 29 28 28 28 28 27 27 27 27 27 27 27 27 27 27 27 27 27 27 27 27 27 27 28 28 28 29 29 30 30 31 31 31 31 30 30 29 29 29 28 28 28 27 27 27 26 26 26 26 26 26 26 26 26 26 26 26 25 25 25 25 25 25 25 25 25 25
26 26 26 27 27 28 30 31 32 32 33 33 33 33 33 34 34 34 34 34 34 34 34 34 34 34 34 34 34 34 34 34 34 34 34 34 34 34 34 34 35 35 36 36 36 37 37 37 37 37 37 37 37 38 38 38 38 38 38 38 38 38 38 38 38 38 38 38 37 37 37 37 37 37 37 37 37 37 36 36 36 36 36 36 36 36 36 36 36 36 36 35 34 33 33 33 33 33 33 33 33 33 33 33 33 33 33 32 32 31 31 30 29 28 27 26 25 24 23 20 17 16 17 18 19 19 16 14 14 15 18 19 20 21 22 22 23 24 25 26 26 26 26 26 26 27 27 27 26 26 27 27 27 27 27 30 31 32 33 35 36 36 36 36 36 36 36 36 35 35 35 35 35 35 35 35 35 35 35 35 35 35 35 35 34 34 34 34 34 34 34 34 34 34 34 34 34 34 34 35 35 35 35 35 35 35 35 35 35 35 35 35 35 35 34 34 34 34 34 34 34 34 34 34 34 34 34 34 34 34 33 33 33 33 33 33 33 33 33 32 32 32 32 32 32 32 32 32 32 32 32 32 32 32 32 32 32 32 32 32 32 32 32 32 32 32 32 32 32 32 32 32 31 31 31 30 30 31 31 31 31 31 31 31 31 31 31 31 31 31 31 31 31 31 31 30 30 30 30 30 30 30 31 31 32 32 32 32 32 31 31 30 30 29 29 28 28 27 27 27 27 27 27 27 27 27 26 26 26 26 26 26 27 29 30 31 32 32 32 32 32 32 32 32 32 32 32 32 31 31 31 31 29 29 28 28 28 27 27 27 27 27 27 27 27 27 27 27 27 27 27 27 27 27 27 28 28 28 29 29 29 30 30 31 31 31 31 30 30 29 29 29 28 28 28 27 27 27 26 26 26 26 26 26 26 26 26 26 26 26 25 25 25 25 25 25 25 25 25 25
26 26 26 26 26 27 28 30 31 32 33 33 33 33 34 34 34 34 34 34 34 34 34 34 34 34 34 34 34 34 34 34 34 34 34 34 34 34 34 34 35 35 36 36 36 37 37 37 37 37 37 37 37 38 38 38 38 38 38 38 38 38 38 38 38 38 38 38 37 37 37 37 37 37 37 37 37 37 36 36 36 36 36 36 36 36 36 36 36 36 36 35 34 33 33 33 33 33 33 33 32 32 32 32 32 32 32 31 30 30 29 28 27 25 23 22 21 20 20 18 16 17 18 19 20 20 17 14 14 15 18 19 20 21 22 23 24 25 26 26 26 26 26 26 26 26 26 26 25 25 25 26 26 26 27 29 31 32 33 35 36 36 36 36 36 36 36 36 36 35 35 35 35 35 35 35 35 35 35 35 35 35 35 35 34 34 34 34 34 34 34 34 34 34 34 34 34 35 35 35 35 35 35 35 35 35 35 35 35 35 35 35 35 35 35 34 34 34 34 34 34 34 34 34 34 34 34 34 34 34 33 33 33 33 33 33 33 33 32 32 32 32 32 32 32 32 32 32 32 32 32 32 32 32 32 32 32 32 32 32 32 32 32 32 32 32 32 32 32 32 32 31 31 31 31 30 30 30 31 31 31 31 31 31 31 31 31 31 31 31 31 31 31 31 31 31 30 30 30 30 30 30 31 31 32 32 32 32 32 31 31 30 30 29 29 28 27 27 27 27 27 27 27 27 27 26 26 26 26 26 26 26 27 29 30 31 31 32 32 32 32 32 32 32 32 32 32 32 32 32 31 31 30 29 29 28 28 27 27 27 27 27 27 27 27 27 27 27 27 27 27 27 27 27 27 28 28 28 29 29 29 30 30 31 31 31 31 30 30 29 29 28 28 28 27 27 27 27 26 26 26 26 26 26 26 26 26 26 26 25 25 25 25 25 26 26 27 28 28 28
26 26 26 26 26 26 27 29 31 32 33 33 34 34 34 34 34 34 34 34 34 34 34 34 34 34 34 34 34 34 34 34 34 34 34 34 34 34 34 35 35 36 36 36 37 37 37 37 37 37 37 37 38 38 38 38 38 38 38 38 38 38 38 38 38 38 38 38 37 37 37 37 37 37 37 37 37 37 36 36 36 36 36 36 36 36 36 36 36 36 36 34 33 32 32 32 32 32 32 32 32 32 31 31 31 31 31 30 29 28 27 26 24 22 21 19 19 18 18 17 18 19 20 21 21 20 17 14 14 15 18 19 20 21 22 23 25 26 26 26 26 26 26 26 26 26 25 25 24 24 24 24 25 25 26 28 30 31 33 34 35 36 36 36 36 36 36 36 36 35 35 35 35 35 35 35 35 35 35 35 35 35 35 35 35 34 34 34 34 34 34 34 34 34 34 34 34 35 35 35 35 35 35 35 35 35 35 35 35 35 35 35 35 35 35 34 34 34 34 34 34 34 34 34 34 34 34 34 34 33 33 33 33 33 33 33 33 32 32 32 32 32 32 32 32 32 32 32 32 32 32 32 32 32 32 32 32 32 32 32 32 32 32 32 32 32 32 32 32 32 32 31 31 31 31 30 30 30 30 31 31 31 31 31 31 31 31 31 31 31 31 31 31 31 31 31 30 30 30 30 30 30 31 31 32 32 32 32 32 31 31 30 30 29 28 28 27 27 27 27 27 27 27 27 27 26 26 26 26 26 26 26 27 28 29 30 31 31 32 32 32 32 32 32 32 32 32 32 32 32 31 31 30 29 29 28 28 27 27 27 27 27 27 27 27 27 27 27 27 27 27 27 27 28 28 28 28 28 29 29 29 30 30 31 31 31 31 30 29 29 29 28 28 28 27 27 27 27 26 26 26 26 26 26 26 26 26 26 25 25 25 25 25 26 27 28 29 30 30 30
26 26 26 26 26 26 26 28 30 32 33 33 34 34 34 34 34 34 34 34 34 34 34 34 34 34 34 34 34 34 34 34 34 34 34 34 34 34 34 35 35 36 36 36 37 37 37 37 37 37 37 37 38 38 38 38 38 38 38 38 38 38 38 38 38 38 38 38 37 37 37 37 37 37 37 37 37 37 36 36 36 36 36 36 36 36 36 36 36 36 35 33 32 32 32 32 32 32 31 31 31 30 30 29 29 29 29 28 27 26 24 23 21 20 19 18 17 17 18 19 21 21 21 22 22 20 17 14 14 15 18 19 20 21 22 23 25 26 26 26 26 26 26 26 26 25 24 24 24 24 24 24 24 25 26 28 30 31 32 34 35 36 36 36 36 36 36 36 36 35 35 35 35 35 35 35 35 35 35 35 35 35 35 35 35 34 34 34 34 34 34 34 34 34 34 35 35 35 35 35 35 35 35 35 35 35 35 35 35 35 35 35 35 35 35 35 34 34 34 34 34 34 34 34 34 34 34 33 33 33 33 33 33 33 33 32 32 32 32 32 32 32 32 32 32 32 32 32 32 32 32 32 32 32 32 32 32 32 32 32 32 32 32 32 32 32 32 32 32 32 32 31 31 30 30 30 30 30 30 30 31 31 31 31 31 31 31 31 31 31 31 31 31 31 31 31 30 30 30 30 30 30 31 31 32 32 32 32 32 32 31 30 30 29 28 28 27 27 27 27 27 27 27 27 27 26 26 26 26 26 26 26 27 28 29 30 30 31 31 32 32 32 32 32 32 32 32 32 32 32 31 31 30 29 29 28 28 27 27 27 27 27 27 27 27 27 27 27 27 27 27 27 27 28 28 28 28 28 29 29 29 30 30 31 31 31 31 30 29 29 28 28 28 27 27 27 27 27 26 26 26 26 26 26 26 26 26 25 25 25 25 26 27 27 28 29 30 31 31 31
26 26 26 26 26 26 27 28 30 31 32 33 34 34 34 34 34 34 34 34 34 34 34 34 34 35 35 35 35 35 35 34 34 34 34 34 34 34 34 35 35 36 36 36 37 37 37 37 37 37 37 37 37 38 38 38 38 38 38 38 38 38 38 38 38 38 38 38 37 37 37 37 37 37 37 37 37 37 36 36 36 36 36 36 36 36 36 36 36 36 35 32 31 31 31 31 31 31 31 30 30 29 27 26 26 27 26 25 24 23 22 20 19 18 18 17 17 17 19 21 23 23 23 22 22 20 17 14 13 14 17 19 20 21 22 23 24 25 26 26 26 26 26 26 26 25 24 24 24 24 24 24 24 25 26 28 30 31 32 34 35 36 36 36 36 36 36 36 36 35 35 35 35 35 35 35 35 35 35 35 35 35 35 35 35 34 34 34 34 34 34 34 35 35 35 35 35 35 35 35 35 35 35 35 35 35 35 35 35 35 35 35 35 35 35 35 34 34 34 34 34 34 34 34 34 34 33 33 33 33 33 33 33 33 32 32 32 32 32 32 32 32 32 32 32 32 32 32 32 32 32 32 32 32 32 32 32 32 32 33 33 32 32 32 32 32 32 32 32 32 31 31 31 30 30 30 30 30 30 30 30 31 31 31 31 31 31 31 31 31 31 31 31 31 31 31 30 30 30 30 30 30 31 31 32 32 32 32 32 32 31 30 30 29 28 28 27 27 27 27 27 27 27 27 27 26 26 26 26 26 26 26 26 27 28 29 30 30 31 31 32 32 32 32 32 32 32 32 32 32 31 31 30 29 28 28 28 27 27 27 27 27 27 27 27 27 27 27 27 27 27 27 28 28 28 28 28 28 29 29 29 30 30 31 31 31 31 30 29 29 28 28 28 27 27 27 27 27 26 26 26 26 26 26 26 26 26 25 25 25 26 27 28 28 29 29 30 32 32 32
26 26 26 26 26 27 27 28 30 32 33 33 34 34 34 34 34 34 34 34 34 34 35 35 35 35 35 35 35 35 35 35 35 35 35 34 34 34 34 35 35 36 36 36 37 37 37 37 37 37 37 37 38 38 38 38 38 38 38 38 38 38 38 38 38 38 38 38 38 37 37 37 37 37 37 37 37 37 36 36 36 36 36 36 36 36 36 36 36 36 34 31 30 30 30 30 30 30 29 28 27 26 24 24 23 23 23 22 21 20 19 18 18 17 17 18 18 19 21 23 24 24 23 23 22 20 17 14 13 14 16 19 20 21 22 23 24 25 26 26 26 26 26 26 26 26 25 24 24 24 25 25 26 26 27 28 30 31 32 34 35 36 36 36 36 36 36 36 36 35 35 35 35 35 35 35 35 35 35 35 35 35 35 35 35 35 34 34 34 35 35 35 35 35 35 35 35 35 35 35 35 35 35 35 35 35 35 35 35 35 35 35 35 34 34 34 34 34 34 34 34 34 34 34 34 34 33 33 33 33 33 33 32 32 32 32 32 32 32 32 32 32 32 32 32 32 32 32 32 32 32 32 32 32 32 32 32 32 33 33 33 32 32 32 32 32 32 32 32 32 31 31 30 30 30 30 30 30 30 30 30 30 31 31 31 31 31 31 31 31 31 31 31 31 31 31 30 30 30 30 30 30 31 32 32 32 32 32 32 32 31 30 30 29 28 27 27 27 27 27 27 27 27 27 27 27 26 26 26 26 26 26 26 27 28 28 29 29 30 31 31 32 32 32 32 32 32 32 32 32 31 31 30 29 28 28 27 27 27 27 27 27 27 27 27 27 27 27 27 27 27 27 27 28 28 28 28 29 29 29 29 30 30 31 31 31 31 30 29 28 28 28 27 27 27 27 27 27 26 26 26 26 26 26 26 26 26 25 25 26 27 28 28 29 29 30 31 32 33 33
26 26 26 26 26 27 27 28 30 32 33 34 34 34 34 34 34 34 34 34 34 34 35 35 35 35 35 35 35 35 35 35 35 35 35 35 35 35 35 35 35 36 36 37 37 37 37 37 37 37 37 37 38 38 38 38 38 38 38 38 38 38 38 38 38 38 38 38 38 38 37 37 37 37 37 37 37 37 37 37 37 36 36 36 36 36 36 36 36 35 32 28 27 27 28 28 28 27 26 25 24 23 22 21 21 21 20 19 19 18 18 18 19 20 21 22 22 23 25 26 26 25 24 23 22 21 18 15 13 14 15 17 20 21 22 23 24 25 26 26 26 26 26 26 26 26 25 24 24 25 26 26 27 27 29 29 31 33 34 34 35 36 36 36 36 36 36 36 36 35 35 35 35 35 35 35 35 35 35 35 35 35 35 35 35 35 35 35 35 35 35 35 35 35 35 35 35 35 35 35 35 35 35 35 35 35 35 35 35 35 35 35 34 34 34 34 34 34 34 34 34 34 34 34 34 33 33 33 33 33 33 32 32 32 32 32 32 32 32 32 32 32 32 32 32 32 32 32 32 32 32 32 32 32 32 32 32 33 33 33 33 32 32 32 32 32 32 32 32 31 31 31 30 30 30 30 30 30 30 30 30 30 30 31 31 31 31 31 31 31 31 31 31 31 31 31 30 30 30 30 30 31 31 32 32 32 32 32 32 32 31 31 30 29 28 28 27 27 27 27 27 27 27 27 27 27 26 26 26 26 26 26 26 27 27 28 28 29 29 30 31 31 31 32 32 32 32 32 32 31 31 30 29 28 28 28 27 27 27 27 27 27 27 27 27 27 27 27 27 27 27 27 27 28 28 28 28 29 29 29 29 30 30 31 31 31 30 29 29 28 28 28 27 27 27 27 27 26 26 26 26 26 26 26 26 26 26 25 25 25 26 28 28 29 29 30 32 33 33 33
26 26 26 27 27 27 27 28 30 32 33 34 34 34 34 34 34 34 34 34 34 34 35 35 35 35 35 35 35 35 35 35 35 35 35 35 35 35 35 35 35 36 36 37 37 37 37 37 37 37 37 37 38 38 38 38 38 38 38 38 38 38 38 38 38 38 38 38 38 38 37 37 37 37 37 37 37 37 37 37 37 37 36 36 36 36 36 36 36 35 32 28 25 24 24 24 24 24 23 22 22 21 20 20 19 19 19 18 18 19 20 22 23 24 25 25 26 27 28 29 28 26 24 24 23 23 21 18 15 14 14 16 19 21 22 23 24 25 26 26 26 26 26 26 26 26 25 24 24 25 26 27 28 29 30 31 33 34 35 35 35 36 36 36 36 36 36 36 36 35 35 35 35 35 35 35 35 35 35 35 35 35 35 35 35 35 35 35 35 35 35 35 35 35 35 35 35 35 35 35 35 35 35 35 35 35 35 35 35 35 35 35 34 34 34 34 34 34 34 34 34 34 34 34 33 33 33 33 33 33 32 32 32 32 32 32 32 32 32 32 32 32 32 32 32 32 32 32 32 32 32 32 32 32 32 32 32 33 33 33 33 32 32 32 32 32 32 32 32 31 31 31 31 30 30 30 30 30 30 30 30 30 30 30 31 31 31 31 31 31 31 31 31 31 31 31 30 30 30 30 31 31 31 32 32 32 32 32 32 32 32 31 30 29 29 28 27 27 27 27 27 27 27 27 27 27 27 26 26 26 26 26 26 26 27 27 28 28 28 29 30 30 31 31 32 32 32 32 31 31 31 30 29 28 28 27 27 27 27 27 27 27 27 27 27 27 27 27 27 27 27 27 27 28 28 28 28 29 29 29 30 30 30 31 31 30 30 29 29 29 28 28 27 27 27 27 27 26 26 26 26 26 26 26 26 26 26 25 25 25 27 28 29 29 30 31 32 33 32 32
26 26 26 27 27 27 27 28 30 32 33 34 34 34 34 34 34 34 34 34 34 34 35 35 35 35 35 35 35 35 35 35 35 35 35 35 35 35 35 35 35 36 36 37 37 37 37 37 37 37 37 37 38 38 38 38 38 38 38 38 38 38 38 38 38 38 38 38 38 38 37 37 37 37 37 37 37 37 37 37 37 37 37 36 36 36 36 36 36 34 30 26 24 23 22 22 22 22 22 22 21 20 20 20 19 19 19 19 21 23 25 25 27 27 28 29 29 30 30 30 30 28 26 25 25 25 24 22 18 14 13 15 19 20 22 23 24 25 25 26 26 26 26 26 26 25 24 24 24 24 26 27 29 30 31 33 35 35 35 35 35 36 36 36 36 36 36 36 36 35 35 35 35 35 35 35 35 35 35 35 35 35 35 35 35 35 35 35 35 35 35 35 35 35 35 35 35 35 35 35 35 35 35 35 35 35 35 35 35 35 35 34 34 34 34 34 34 34 34 34 34 34 34 34 33 33 33 33 32 32 32 32 32 32 32 32 32 32 32 32 32 32 32 32 32 32 32 32 32 32 32 32 32 32 32 32 32 33 33 33 33 33 32 32 32 32 32 32 32 31 31 31 31 30 30 30 30 30 30 30 30 30 30 30 30 31 31 31 31 31 31 31 31 31 31 31 30 30 30 31 31 31 32 32 32 32 32 32 32 32 32 31 30 29 29 28 28 27 27 27 27 27 27 27 27 27 27 26 26 26 26 26 26 26 27 27 27 28 28 28 29 29 30 31 31 31 31 30 30 30 30 29 28 28 27 27 27 27 27 27 27 27 27 27 27 27 27 27 27 27 27 27 27 28 28 28 28 28 29 29 30 30 30 31 31 30 30 29 29 29 28 28 27 27 27 27 27 26 26 26 26 26 26 26 26 25 25 25 25 26 27 28 29 29 30 31 33 32 32 32
26 26 26 27 27 27 27 28 31 33 34 34 34 34 34 34 34 34 34 34 34 34 34 35 35 35 35 35 35 35 35 35 35 35 35 35 35 35 35 35 35 36 36 36 37 37 37 37 37 37 37 37 38 38 38 38 38 38 38 38 38 38 38 38 38 38 38 38 38 38 37 37 37 37 37 37 37 37 37 37 37 37 37 36 36 36 36 36 36 33 28 25 23 22 22 22 22 22 22 22 21 21 22 22 22 22 22 23 25 27 27 28 29 30 30 31 31 32 32 32 31 30 28 28 27 28 28 26 21 16 13 14 16 20 21 22 23 24 25 25 26 26 26 26 25 24 24 24 24 24 26 28 30 31 32 34 35 35 35 35 35 36 36 36 36 36 36 36 36 36 35 35 35 35 35 35 35 35 35 35 35 35 35 35 35 35 35 35 35 35 35 35 35 35 35 35 35 35 35 35 35 35 35 35 35 35 35 35 35 35 35 34 34 34 34 34 34 34 34 34 34 34 34 33 33 33 33 32 32 32 32 32 32 32 32 32 32 32 32 32 32 32 32 32 32 32 32 32 32 32 32 32 32 32 32 32 33 33 33 33 33 33 32 32 32 32 32 32 32 31 31 31 31 31 30 30 30 30 30 31 31 31 31 30 30 31 31 31 31 31 31 31 31 31 31 31 30 30 31 31 31 31 32 32 32 32 32 32 32 32 32 31 30 29 29 28 28 27 27 27 27 27 27 27 27 27 27 26 26 26 26 26 26 26 27 27 27 27 28 28 28 28 29 30 30 30 30 29 29 29 29 29 28 28 28 27 27 27 27 27 27 27 27 27 27 27 27 27 27 27 27 27 27 27 28 28 28 28 28 29 30 30 31 31 31 30 29 29 29 29 28 28 27 27 27 27 27 26 26 26 25 25 25 25 25 25 25 25 25 26 28 28 29 29 30 32 33 32 32 32
26 26 26 27 27 27 27 28 31 33 34 34 34 34 34 34 34 34 34 34 34 34 34 35 35 35 35 35 35 36 36 36 35 35 35 35 35 35 35 35 35 36 36 36 37 37 37 37 37 37 37 37 38 38 38 38 38 38 38 38 38 38 38 38 38 38 38 38 38 38 37 37 37 37 37 37 37 37 37 37 37 37 37 36 36 36 36 36 35 31 26 23 22 22 22 22 22 22 22 22 22 23 24 25 26 26 27 28 29 30 30 29 30 31 32 32 33 33 33 33 33 32 31 31 31 31 30 30 26 19 14 13 14 19 21 22 23 24 24 25 25 25 26 25 24 24 24 24 24 24 26 29 31 32 33 34 34 35 35 35 35 36 36 36 36 36 36 36 36 36 35 35 35 35 35 35 35 35 35 35 35 35 35 35 35 35 35 35 35 35 35 35 35 35 35 35 35 35 35 35 35 35 35 35 35 35 35 35 35 35 35 34 34 34 34 34 34 34 34 34 34 34 34 33 33 33 32 32 32 32 32 32 32 32 32 32 32 32 32 32 32 32 32 32 32 32 32 32 32 32 32 32 32 32 32 32 33 33 33 33 33 33 32 32 32 32 32 32 32 32 31 31 31 31 31 30 30 31 31 31 31 31 31 31 30 31 31 31 31 31 31 31 31 31 31 31 30 30 31 31 31 31 32 32 32 32 32 32 32 32 31 31 30 29 29 29 28 28 27 27 27 27 27 27 27 27 27 27 26 26 26 26 26 26 27 27 27 27 27 28 28 28 28 29 29 29 29 29 29 29 29 29 28 28 28 28 27 27 27 27 27 27 27 27 27 27 27 27 27 27 27 27 27 27 27 28 28 28 28 29 30 30 31 31 31 30 30 29 29 28 28 28 27 27 27 27 27 26 26 26 25 26 26 26 25 25 25 26 27 28 28 28 29 29 30 32 32 32 32 32
26 26 26 26 27 27 28 30 32 33 34 34 34 34 34 34 34 34 34 34 34 34 34 34 35 35 35 35 35 36 36 36 36 35 35 35 35 35 35 35 35 36 36 36 37 37 37 37 37 37 37 37 38 38 38 38 38 38 38 38 38 38 38 38 38 38 38 38 38 38 38 37 37 37 37 37 37 37 37 37 37 37 37 36 36 36 36 36 34 30 26 23 22 22 22 22 22 22 22 23 25 27 29 29 29 30 30 32 32 32 32 31 31 32 33 33 33 34 34 35 35 35 34 34 34 33 33 32 29 23 16 13 13 15 21 22 22 23 24 24 24 24 25 24 24 24 24 24 25 26 28 30 31 32 33 33 34 34 34 34 35 35 36 36 36 36 36 36 36 35 35 35 35 35 35 35 35 35 35 35 35 35 35 35 35 35 35 35 35 35 35 35 35 35 35 35 35 35 35 35 35 35 35 35 35 35 35 35 35 35 34 34 34 34 34 34 34 34 34 34 34 34 33 33 32 32 32 32 32 32 32 32 32 32 32 32 32 32 32 32 32 32 32 32 32 32 32 32 32 32 32 32 32 32 32 33 33 33 33 33 33 33 32 32 32 32 32 32 32 32 32 31 31 31 31 31 31 31 31 31 32 32 32 31 31 31 31 31 31 31 31 31 31 31 31 31 30 30 31 31 31 32 32 32 32 32 32 32 32 32 31 30 29 29 29 29 28 28 28 27 27 27 27 27 27 27 27 27 26 26 26 26 26 26 27 27 27 27 27 27 28 28 28 28 28 29 29 29 29 29 29 29 28 28 28 28 27 27 27 27 27 27 27 27 27 27 27 27 27 27 27 27 27 27 27 27 28 28 28 29 30 30 31 31 31 30 30 30 29 28 28 28 27 27 27 27 27 26 26 25 26 26 26 26 26 26 26 27 28 28 28 29 29 29 30 32 32 32 32 32
26 26 26 27 27 28 29 31 32 33 34 34 34 34 34 34 34 34 34 34 34 34 34 34 35 35 35 35 35 36 36 36 36 36 35 35 35 35 35 35 35 36 36 36 37 37 37 37 37 37 37 37 38 38 38 38 38 38 38 38 38 38 38 38 38 38 38 38 38 38 38 38 38 37 37 37 37 37 37 37 37 37 37 36 36 36 36 35 33 30 26 23 22 22 22 22 22 23 24 26 28 30 31 32 32 32 33 34 34 34 33 33 33 33 34 34 34 35 35 36 36 36 36 35 35 35 34 33 31 27 20 14 13 14 17 21 22 22 23 24 24 24 24 24 24 25 25 26 27 28 29 31 31 32 32 33 33 33 33 33 33 34 35 36 36 36 36 36 36 35 35 35 35 35 35 35 35 35 35 35 35 35 35 35 35 35 35 35 35 35 35 35 35 35 35 35 35 35 35 35 35 35 35 35 35 35 35 35 35 35 34 34 34 34 34 34 34 34 34 34 33 33 33 33 32 32 32 32 32 32 32 32 32 32 32 32 32 32 32 32 32 32 32 32 32 32 32 32 32 32 32 32 32 32 32 33 33 33 33 33 33 33 32 32 32 32 32 32 32 32 32 32 31 31 31 31 31 31 32 32 32 32 32 32 31 31 31 31 31 31 31 31 31 31 31 31 30 31 31 31 31 32 32 32 32 32 32 32 32 32 32 31 30 29 29 29 28 28 28 27 27 27 27 27 27 27 27 27 26 26 26 26 26 26 27 27 27 27 27 27 27 28 28 28 28 28 28 28 28 29 29 28 28 28 28 28 28 27 27 27 27 27 27 27 27 27 27 27 27 27 27 27 27 27 27 27 28 28 28 29 30 30 31 31 31 30 30 30 29 28 28 28 27 27 27 27 26 26 26 25 26 27 27 27 26 26 27 27 28 28 28 29 29 29 30 32 32 32 32 32
26 26 26 27 28 29 30 32 33 34 34 34 34 34 34 34 34 34 34 34 34 34 34 34 34 34 34 34 35 36 36 36 36 36 36 36 35 35 35 35 36 36 36 36 37 37 37 37 37 37 37 38 38 38 38 38 38 38 38 38 38 38 38 38 38 38 38 38 38 38 38 38 38 38 38 37 37 37 37 37 37 37 37 36 36 36 36 35 33 30 27 24 22 22 22 22 23 25 27 29 31 32 33 34 34 33 34 35 35 35 35 35 35 35 35 35 35 35 36 36 36 36 36 36 36 36 35 34 33 30 24 17 13 13 15 18 21 22 23 23 24 24 24 25 26 26 27 28 29 30 30 31 31 31 32 32 32 31 31 32 32 33 34 35 35 36 36 36 35 35 35 35 35 35 35 35 35 35 35 35 35 35 35 35 35 35 35 35 35 35 35 35 35 35 35 35 35 35 35 35 35 35 35 35 35 35 35 35 35 35 34 34 34 33 33 33 33 34 34 33 33 33 33 32 32 32 32 32 32 32 32 32 32 32 32 32 32 32 32 32 32 32 32 32 32 32 32 32 32 32 32 32 32 32 33 33 33 33 33 33 33 33 33 32 32 32 32 32 32 32 32 32 32 31 31 31 32 32 32 32 33 33 33 32 31 31 31 31 31 31 31 31 31 31 31 31 30 31 31 31 31 32 32 32 32 32 32 32 32 32 32 32 31 30 30 29 29 28 28 27 27 27 27 27 27 27 27 27 26 26 26 26 26 27 27 27 27 27 27 27 27 27 28 28 28 28 28 28 28 28 28 28 28 28 28 28 28 28 27 27 27 27 27 27 27 27 27 27 27 27 27 27 27 27 27 27 28 28 29 29 30 30 31 31 31 30 30 30 29 28 27 27 27 27 27 26 26 26 26 25 26 27 27 27 27 27 27 27 28 28 28 29 29 30 31 32 32 32 32 32
26 26 26 27 28 30 31 32 33 34 34 34 34 34 34 34 34 34 34 34 34 34 34 34 34 34 34 34 35 36 36 36 36 36 36 36 36 36 36 36 36 36 36 36 36 37 37 37 37 37 38 38 38 38 38 38 38 38 38 38 38 38 38 38 38 38 38 38 38 38 38 38 38 38 38 38 38 37 37 37 37 37 37 36 36 36 36 35 32 30 27 24 22 22 22 22 23 26 29 31 32 33 34 35 35 35 35 36 36 36 36 36 36 35 35 35 35 36 36 36 36 36 36 36 36 36 36 36 35 33 28 20 15 13 14 16 19 21 22 23 24 25 25 26 27 27 28 29 30 30 31 31 31 31 31 30 29 28 28 29 29 30 31 33 33 34 35 35 35 35 35 35 35 35 35 35 35 35 35 35 35 35 35 35 35 35 35 35 35 35 35 35 35 35 35 35 35 35 35 35 35 35 35 35 35 35 35 35 35 34 34 34 34 33 33 33 33 33 33 33 33 32 32 32 32 32 32 32 32 32 32 32 32 32 32 32 32 32 32 32 32 32 32 32 32 32 32 32 32 32 32 32 32 32 33 33 33 33 33 33 33 33 33 33 32 32 32 32 32 32 32 32 32 32 32 32 32 32 33 33 33 33 33 32 31 31 31 31 31 31 31 31 31 31 31 31 30 30 31 31 31 32 32 32 32 32 32 32 32 32 32 32 31 31 30 30 29 29 28 27 27 27 27 27 27 27 27 27 27 26 26 26 27 27 27 27 27 27 27 27 27 27 27 28 28 28 28 28 28 28 28 28 28 28 28 28 28 28 28 27 27 27 27 27 27 28 28 28 27 27 27 27 27 27 27 27 28 28 29 29 30 30 31 31 31 31 30 30 29 28 26 26 26 27 26 26 26 26 25 26 27 27 27 27 27 27 27 27 28 28 28 29 29 30 30 31 32 32 32 32
26 26 27 28 29 31 32 33 33 34 34 34 34 34 34 34 34 34 34 34 34 34 34 34 34 34 34 34 35 36 36 36 36 36 36 36 36 36 36 36 36 36 36 36 37 37 37 37 37 37 38 38 38 38 38 38 38 38 38 38 38 38 38 38 38 38 38 39 39 38 38 38 38 38 38 38 38 38 37 37 37 37 37 37 37 37 36 34 32 30 28 25 23 22 22 22 23 26 29 32 33 34 35 35 36 36 36 36 36 36 36 36 36 36 36 36 36 36 36 36 36 36 36 36 36 36 36 36 36 34 30 23 17 14 13 14 16 20 21 22 23 24 25 26 27 28 29 30 30 30 30 31 31 31 30 27 24 22 21 21 23 24 25 28 31 33 34 35 35 35 35 35 35 35 35 35 35 35 35 35 35 35 35 35 35 35 35 35 35 34 34 34 35 35 35 35 35 35 35 35 35 35 35 35 35 35 35 35 34 34 34 34 34 33 33 33 33 33 33 33 32 32 32 32 32 32 32 32 32 32 32 32 32 32 32 32 32 32 32 32 32 32 32 32 32 32 32 32 32 32 32 32 32 32 33 33 33 33 33 33 33 33 33 33 33 32 32 32 32 32 32 32 32 32 32 32 32 33 33 33 33 33 33 33 32 31 31 31 31 31 31 31 31 31 31 31 30 30 31 31 31 31 32 32 32 32 32 32 32 32 32 32 32 31 31 30 30 29 28 28 27 27 27 27 27 27 27 27 27 27 26 26 27 27 27 27 27 27 27 27 27 27 27 27 28 28 28 28 28 28 28 28 28 28 28 28 28 28 28 28 28 27 27 28 28 28 28 28 28 27 27 27 27 27 27 27 28 28 29 29 30 30 31 31 31 31 31 30 30 28 26 25 25 26 26 26 25 25 26 27 27 27 27 27 27 27 27 28 28 28 28 29 29 30 30 31 31 32 32 32
26 27 28 29 30 31 32 33 33 34 34 34 34 34 34 34 34 34 34 34 34 34 34 34 34 34 34 34 35 36 36 36 36 36 36 36 36 36 36 36 36 36 36 36 37 37 37 37 37 37 38 38 38 38 38 38 38 38 38 38 38 38 38 38 38 38 38 39 39 39 39 38 38 38 38 38 38 38 38 37 37 37 37 37 37 37 36 34 32 31 28 24 23 22 22 22 23 26 29 32 34 35 35 36 36 36 36 36 36 36 36 36 36 36 36 36 36 36 36 36 36 36 36 36 36 36 36 36 36 35 31 26 21 16 14 13 14 17 20 21 22 23 24 25 26 27 28 29 30 30 30 30 30 30 27 22 17 15 14 14 15 16 18 22 26 29 32 33 34 35 35 35 35 35 35 35 35 35 35 35 35 35 35 35 35 34 34 34 34 34 34 34 34 35 35 35 35 35 35 35 35 35 35 35 34 34 34 34 34 34 34 34 34 33 33 33 33 33 32 32 32 32 32 32 32 32 32 32 32 32 32 32 32 32 32 32 32 32 32 32 32 32 32 32 32 32 32 32 32 32 32 32 32 33 33 33 33 33 33 33 33 33 33 33 33 33 32 32 32 32 32 32 32 32 32 32 32 33 33 33 33 33 33 33 32 31 31 31 31 31 31 31 31 31 31 31 30 30 30 31 31 31 31 32 32 32 32 32 32 32 32 32 32 31 31 30 30 30 29 28 28 27 27 27 27 27 27 27 27 27 27 27 27 27 27 27 27 27 27 27 27 27 27 27 27 28 28 28 28 28 28 28 28 28 28 28 28 28 28 28 28 28 28 28 28 28 28 28 28 28 28 27 27 27 27 27 28 28 29 29 30 30 31 31 31 31 31 31 31 30 28 26 25 25 25 25 25 25 26 27 27 27 27 27 27 27 28 28 28 28 28 28 29 30 30 31 31 32 32 32
27 28 28 29 30 32 32 33 33 33 34 34 34 34 34 34 34 34 34 34 34 34 34 34 34 34 34 34 35 36 36 36 36 36 36 36 36 36 36 36 36 36 36 37 37 37 37 37 37 38 38 38 38 38 38 38 38 38 38 38 38 38 38 38 38 38 39 39 39 39 39 39 39 39 39 39 38 38 37 38 38 37 37 37 37 37 35 34 33 31 28 25 23 22 22 22 23 26 29 32 34 35 36 36 36 36 36 36 36 36 36 36 36 36 36 36 36 36 36 36 36 36 36 36 36 36 36 36 36 35 32 29 26 21 17 14 14 14 15 19 19 21 22 24 25 26 27 27 28 29 30 30 30 28 23 16 13 13 14 14 13 13 13 16 20 24 27 29 30 31 32 32 33 34 35 35 35 35 35 35 35 34 34 34 34 34 34 34 34 34 34 34 34 34 35 35 35 35 35 35 35 35 34 34 34 34 34 34 34 34 34 34 34 33 33 33 33 32 32 32 32 32 32 32 32 32 32 32 32 32 32 32 32 32 32 32 32 32 32 32 32 32 32 32 32 32 32 32 32 32 32 32 32 33 33 34 34 34 34 34 33 33 33 33 33 33 33 33 32 32 32 32 32 32 32 32 32 32 33 33 33 33 33 33 31 31 31 31 31 31 31 31 31 31 31 31 30 30 30 30 31 31 31 31 32 32 32 32 32 32 32 32 32 32 31 31 30 30 29 29 28 27 27 27 27 27 27 27 27 27 27 27 27 27 27 27 27 27 27 27 27 27 27 27 27 28 28 28 28 28 28 28 28 28 28 28 28 28 28 28 28 28 28 28 28 28 28 28 28 28 28 27 27 27 27 28 28 28 29 29 30 30 30 31 31 31 31 31 31 31 29 27 26 26 26 26 25 26 27 27 27 27 27 27 27 28 28 28 28 28 28 28 28 29 30 31 32 32 32 32
27 28 29 30 31 32 33 33 33 33 33 33 33 34 34 34 34 34 34 34 34 34 34 34 34 34 34 35 35 36 36 36 36 36 36 36 36 36 36 36 36 36 36 37 37 37 37 37 37 38 38 38 38 38 38 38 38 38 38 38 38 38 38 38 38 39 39 39 39 39 39 39 39 39 39 39 39 38 37 38 38 38 38 38 37 37 35 34 33 31 28 25 23 22 22 22 23 26 30 32 34 35 36 36 36 36 36 36 36 36 36 36 36 36 36 36 36 37 37 37 37 37 36 36 36 36 36 36 36 36 35 33 30 26 22 19 16 14 14 13 17 17 19 21 23 24 25 25 26 28 29 30 29 25 19 14 13 15 16 17 16 14 13 13 15 18 21 24 25 26 27 28 30 33 34 34 34 34 34 34 34 34 34 34 34 34 34 34 34 34 34 34 34 34 34 35 35 35 35 34 34 34 34 34 34 34 34 34 34 34 34 34 33 33 33 33 32 32 32 32 32 32 32 32 32 32 32 32 32 32 32 32 32 32 32 32 32 32 32 32 32 32 32 32 32 32 32 32 32 32 32 32 33 33 34 34 34 34 34 34 33 33 33 33 33 33 33 33 33 32 32 32 32 32 32 32 32 32 32 33 33 33 33 32 31 31 31 31 31 31 31 31 31 31 31 31 31 30 30 30 30 31 31 31 31 31 32 32 32 32 32 32 32 32 32 31 30 30 29 29 28 28 27 27 27 27 27 27 27 27 27 27 27 27 27 27 27 27 27 27 27 27 27 27 27 28 28 28 28 28 28 28 28 28 28 28 28 28 28 28 28 28 28 28 28 28 28 28 28 28 28 28 27 27 28 28 28 28 29 29 29 30 30 31 31 31 32 32 32 32 30 28 26 26 26 26 26 26 27 27 27 27 27 27 28 28 28 28 28 28 28 28 28 28 29 30 31 32 32 32
27 29 30 31 32 32 33 33 33 33 33 33 33 33 34 34 34 34 34 34 34 34 34 34 34 34 34 35 35 36 36 36 36 36 36 36 36 36 36 36 36 36 37 37 37 37 37 37 38 38 38 38 38 38 38 38 38 38 38 38 38 38 38 38 38 39 39 39 39 39 39 39 39 39 39 39 39 38 38 38 38 39 38 38 38 37 36 35 35 32 28 25 23 22 22 23 25 28 31 33 34 35 36 36 36 36 36 36 36 36 37 36 36 36 36 37 37 37 37 37 37 37 37 36 36 36 36 36 36 36 36 35 33 30 27 24 21 18 15 14 13 15 16 18 20 22 23 24 24 26 27 27 26 22 16 13 13 16 19 19 19 17 -32767 13 13 15 17 19 21 22 23 25 28 31 34 34 34 34 34 34 34 34 34 34 34 34 34 34 34 34 34 34 34 34 34 34 34 34 34 34 34 34 34 34 34 34 34 34 34 34 34 33 33 33 33 33 32 32 32 32 32 32 32 32 32 32 32 32 32 32 32 32 32 32 32 32 32 32 32 32 32 32 32 32 32 32 32 32 32 32 32 32 33 34 34 34 34 34 34 34 33 33 33 33 33 33 33 33 33 33 32 32 32 32 32 32 32 32 32 32 33 33 33 32 31 31 31 31 31 31 31 31 31 31 31 31 31 31 30 30 30 30 30 30 31 31 31 32 32 32 32 32 32 32 32 32 31 30 29 29 28 28 27 27 27 27 27 27 27 27 27 27 27 27 27 27 27 27 27 27 27 27 27 27 27 27 28 28 28 28 28 28 28 28 28 28 28 28 28 28 28 28 28 28 28 28 28 28 28 28 28 28 28 27 28 28 28 29 29 29 29 30 30 31 31 32 32 32 32 32 31 29 27 26 26 26 26 26 27 27 27 27 27 27 28 28 28 28 28 28 28 28 28 28 28 28 29 30 31 32
28 29 30 30 31 32 32 32 33 33 33 33 33 33 34 34 34 34 34 34 34 34 34 34 34 34 34 35 35 36 36 36 36 36 36 36 36 36 36 36 36 37 37 37 37 37 37 37 38 38 38 38 38 38 38 38 38 38 38 38 38 38 38 38 39 39 39 39 39 39 39 39 39 39 39 39 39 39 38 38 39 39 39 38 38 37 37 36 35 33 29 26 23 22 22 23 26 29 31 33 34 35 36 36 36 36 36 36 36 36 37 37 37 37 37 37 37 37 37 37 37 37 37 37 36 36 36 36 36 36 36 36 35 34 31 28 26 23 20 17 15 13 14 15 17 19 21 22 22 22 23 23 22 18 15 13 14 16 20 20 20 -32767 17 15 14 13 14 17 18 19 20 23 26 30 33 34 34 34 34 34 34 34 34 34 34 34 34 34 34 34 34 34 34 34 34 34 34 34 34 34 34 34 34 34 34 34 34 34 34 33 33 33 33 33 33 32 32 32 32 32 32 32 32 32 32 32 32 32 32 32 32 32 32 32 32 32 32 32 32 32 32 32 32 32 32 32 32 32 32 32 32 32 33 34 34 34 34 34 34 33 33 33 33 33 33 33 33 33 33 33 33 32 32 32 32 32 32 32 32 32 32 32 32 32 31 31 31 31 31 31 31 31 31 31 31 31 31 31 31 31 31 31 30 30 30 31 31 31 32 32 32 32 32 32 32 32 31 30 29 29 28 28 28 27 27 27 27 27 27 27 27 27 27 27 27 27 27 27 27 27 27 27 27 27 27 27 27 28 28 28 28 28 28 28 28 28 28 28 28 28 28 28 28 28 28 28 28 29 29 28 28 28 28 28 28 28 28 29 29 29 29 30 30 31 31 32 32 32 32 32 32 30 27 26 26 26 26 27 27 27 27 27 27 28 28 28 28 28 28 28 28 28 28 28 28 28 28 28 30 31
28 28 29 30 31 32 32 32 32 32 33 33 33 33 34 34 34 34 34 34 34 34 34 34 34 34 34 35 35 36 36 36 36 36 36 36 36 36 36 36 37 37 37 37 37 37 37 37 38 38 38 38 38 38 38 38 38 38 38 38 38 38 38 38 39 39 39 39 39 39 39 39 39 39 39 39 39 39 38 38 39 39 39 38 38 38 37 37 36 34 31 27 24 22 22 22 24 28 31 33 34 35 36 36 36 36 36 36 36 37 37 37 37 37 37 37 37 37 37 37 37 37 37 37 37 36 36 36 36 36 36 36 36 35 34 32 30 28 27 24 20 17 14 13 14 16 17 18 18 17 18 18 17 14 13 13 14 16 20 21 -32767 21 20 19 17 15 14 13 14 17 18 22 26 30 32 33 33 34 34 34 34 34 34 34 34 34 34 34 34 34 34 34 34 34 34 34 34 34 34 34 34 34 34 34 34 34 34 34 33 33 33 33 33 33 33 32 32 32 32 32 32 32 32 32 32 32 32 32 32 32 32 32 32 32 32 32 32 32 32 32 32 32 32 32 32 32 32 32 32 32 32 33 33 34 34 34 34 34 33 33 33 33 33 33 33 33 33 33 33 33 33 33 32 32 32 32 32 32 32 32 32 32 32 32 31 31 31 31 31 31 31 31 31 31 31 31 31 31 31 31 31 31 31 31 30 30 31 31 31 32 32 32 32 32 32 32 31 31 30 29 28 28 28 27 27 27 27 27 27 27 27 27 27 27 27 27 27 27 27 27 27 27 27 27 27 27 27 27 27 28 28 28 28 28 28 28 27 27 27 27 27 27 28 28 29 29 29 29 29 29 28 28 28 28 28 28 28 29 29 29 30 30 30 31 32 32 32 32 32 32 32 31 29 27 26 26 26 27 27 27 27 27 27 27 28 28 28 28 28 28 28 28 28 28 28 28 28 28 29 30
27 28 29 29 30 31 32 32 32 32 32 33 33 33 34 34 34 34 34 34 34 34 34 35 35 35 35 35 35 36 36 36 36 36 36 36 36 36 36 36 37 37 37 37 37 37 37 37 38 38 38 38 38 38 38 38 38 38 38 38 38 38 38 38 39 39 39 39 39 39 39 39 39 39 39 39 39 38 38 39 39 39 39 38 38 38 38 37 36 35 32 28 25 23 22 22 23 26 30 33 34 35 36 36 36 36 36 36 37 37 37 37 37 37 37 37 37 37 37 37 37 37 37 37 37 37 36 36 36 36 36 36 36 36 35 34 34 33 31 30 27 23 18 14 13 14 14 15 15 14 14 14 14 13 13 14 15 18 19 -32767 22 22 21 21 20 18 16 14 13 15 17 22 25 29 32 33 33 33 33 33 33 33 34 34 34 34 34 34 34 34 34 34 34 34 34 34 34 34 34 34 34 34 34 34 34 34 34 33 33 33 33 33 33 33 33 32 32 32 32 32 32 32 32 32 32 32 32 32 32 32 32 32 32 32 32 32 32 32 32 32 32 32 32 32 32 32 32 32 32 32 32 33 33 34 34 34 34 33 33 33 33 33 33 33 33 33 33 33 33 33 33 33 33 33 32 32 32 32 32 32 32 32 32 31 31 31 31 31 31 31 31 31 31 31 31 31 31 31 31 31 31 31 31 31 31 30 30 31 31 32 32 32 32 32 32 32 31 31 30 29 28 28 28 28 27 27 27 27 27 27 27 27 27 27 27 27 27 27 27 27 27 27 27 27 27 27 27 27 27 27 27 27 27 27 27 27 27 27 27 27 27 27 28 28 29 29 29 29 29 29 29 28 28 28 28 28 29 29 29 29 30 30 31 31 31 32 32 32 32 32 32 32 31 29 28 26 26 26 27 27 27 27 27 27 28 28 28 28 28 28 28 28 28 28 28 28 28 28 28 29
27 27 28 29 29 30 30 31 31 32 32 33 33 33 34 34 34 34 34 34 34 34 34 35 35 35 35 35 35 36 36 36 36 36 36 36 36 36 36 36 37 37 37 37 37 37 37 37 38 38 38 38 38 38 38 38 38 38 38 38 38 38 38 38 39 39 39 39 39 39 39 39 39 39 39 39 39 38 38 39 40 39 39 38 38 38 38 38 37 36 34 30 27 24 22 22 22 23 27 31 34 35 36 36 36 36 36 36 37 37 37 37 37 37 37 37 37 37 37 37 37 37 37 37 37 37 36 36 36 36 36 36 36 36 36 36 36 35 35 33 33 30 25 18 14 14 13 13 13 13 13 13 13 14 14 17 20 20 -32767 23 23 22 22 21 21 20 17 14 13 14 18 22 26 29 31 32 33 33 33 33 33 33 33 33 34 34 34 34 34 34 34 34 34 34 34 34 34 34 34 34 34 34 34 34 34 34 34 33 33 33 33 33 33 33 33 32 32 32 32 32 32 32 32 32 32 32 32 32 32 32 32 32 32 32 32 32 32 32 32 32 32 32 32 32 32 32 32 32 32 32 32 33 33 34 34 34 34 33 33 33 33 33 33 33 33 33 33 33 33 33 33 33 33 33 32 32 32 32 32 32 32 32 32 31 31 31 31 31 31 31 31 31 31 31 31 31 31 31 31 31 31 31 31 31 31 30 30 31 31 31 32 32 32 32 32 32 31 31 30 29 29 28 28 28 28 27 27 27 27 27 27 27 27 27 27 27 27 27 27 27 27 27 27 27 27 27 27 27 27 27 27 27 27 27 27 27 27 27 27 27 27 27 27 28 28 29 29 29 29 29 29 29 28 28 28 29 29 29 29 29 30 30 31 31 31 32 32 33 33 33 33 33 32 31 29 27 26 26 27 27 27 27 27 27 27 28 28 28 28 28 28 28 28 28 28 28 28 28 28 28
27 27 28 28 29 29 30 30 31 32 32 33 33 33 34 34 34 34 34 34 34 34 35 35 35 35 35 35 36 36 36 36 36 36 36 36 36 36 36 37 37 37 37 37 37 37 37 37 37 38 38 38 38 38 38 38 38 38 38 38 38 38 38 38 39 39 39 39 39 39 39 39 39 39 39 39 38 38 39 40 40 40 39 38 38 38 38 38 38 37 36 33 29 25 23 22 22 22 24 28 32 35 35 36 36 36 36 36 37 37 37 37 37 37 37 37 37 37 37 37 37 37 37 37 37 37 36 36 36 36 36 36 36 36 36 36 36 36 36 36 35 34 31 26 20 17 16 15 13 13 15 16 17 18 19 22 22 -32767 24 24 23 23 23 22 21 21 18 14 13 14 17 22 24 29 31 31 32 32 32 32 32 33 33 33 33 34 34 34 34 34 34 34 34 34 34 34 34 34 34 34 34 34 34 34 34 34 33 33 33 33 33 33 33 33 32 32 32 32 32 32 32 32 32 32 32 32 32 32 32 32 32 32 32 32 32 32 32 32 32 32 32 32 32 32 32 32 32 32 32 32 33 33 33 34 34 34 34 33 33 33 33 33 33 33 33 33 33 33 33 33 33 33 33 33 32 32 32 32 32 32 32 32 32 31 30 31 31 31 31 31 31 31 31 31 31 31 31 31 31 31 31 31 31 31 31 30 30 31 31 31 32 32 32 32 32 32 31 31 30 30 29 28 28 28 28 28 28 27 27 27 27 27 27 27 27 27 27 27 27 27 27 27 27 27 27 27 27 27 27 27 27 27 27 27 27 27 27 27 27 27 27 27 27 28 28 28 29 29 29 29 29 29 29 29 29 29 29 29 29 30 30 31 31 31 31 32 33 33 33 33 33 33 33 32 30 27 26 26 27 27 27 27 27 27 27 27 28 28 28 28 28 28 28 28 28 28 28 28 28 28
27 27 27 28 29 29 29 30 31 32 32 32 33 33 34 34 34 34 34 34 34 34 35 35 35 35 35 35 36 36 36 36 36 36 36 36 36 36 36 37 37 37 37 37 37 37 37 37 37 38 38 38 38 38 38 38 38 38 38 38 38 38 38 38 39 39 39 39 39 39 39 39 39 39 39 38 38 39 40 40 40 39 38 38 38 38 38 38 38 38 36 33 30 26 24 22 22 22 23 26 30 33 35 36 36 36 36 36 36 37 37 37 37 37 37 37 37 37 37 37 37 37 37 37 37 37 36 36 36 36 36 36 36 36 36 36 36 36 36 36 36 36 34 32 28 26 25 24 23 22 18 19 23 24 23 24 -32767 26 25 25 24 24 23 23 22 20 18 14 13 14 17 22 24 29 30 31 31 31 32 32 32 32 32 32 33 33 34 34 34 34 34 34 34 34 34 34 34 34 34 34 34 34 34 34 34 34 33 33 33 33 33 33 33 32 32 32 32 32 32 32 32 32 32 32 32 32 32 32 32 32 32 32 32 32 32 32 32 32 32 32 32 32 32 32 32 32 32 32 32 32 33 33 33 34 34 34 34 33 33 33 33 33 33 33 33 33 33 33 33 33 33 33 33 33 32 32 32 32 32 32 32 32 31 31 30 31 31 31 31 31 31 31 31 31 31 31 31 31 31 31 31 31 31 31 31 30 30 31 31 32 32 32 32 32 32 32 31 31 30 30 29 29 28 28 28 28 28 28 27 27 27 27 27 27 27 27 27 27 27 27 27 27 27 27 27 27 27 27 27 27 27 27 27 27 27 27 27 27 27 27 27 27 27 28 28 28 28 29 29 29 29 29 29 29 29 29 29 29 29 30 30 31 31 31 31 32 33 33 33 33 33 33 33 33 30 28 27 26 26 27 27 27 27 27 27 27 27 27 28 28 28 28 28 28 28 28 28 28 28 28
27 27 27 27 27 28 28 29 30 31 32 32 33 33 34 34 34 34 34 34 34 34 35 35 35 36 36 36 36 36 36 36 36 36 36 36 36 36 37 37 37 37 37 37 37 37 37 37 37 38 38 38 38 38 38 38 38 38 38 38 38 38 38 38 39 39 39 39 39 39 39 39 39 39 39 38 39 40 40 40 40 39 38 38 38 38 38 38 38 38 36 34 31 28 25 23 22 22 22 25 28 32 34 35 36 36 36 36 36 37 37 37 37 37 37 37 37 37 37 37 37 37 37 37 37 37 36 36 36 36 36 36 36 36 36 36 36 36 36 36 36 36 36 35 34 33 33 33 31 30 30 30 29 28 28 27 27 26 26 25 25 24 24 23 22 20 17 14 13 15 19 23 26 30 30 31 31 31 31 32 32 32 32 32 32 32 33 34 34 34 34 34 34 34 34 34 34 34 34 34 34 34 34 34 34 34 33 33 33 33 33 33 33 32 32 32 32 32 32 32 32 32 32 32 32 32 32 32 32 32 32 32 32 32 32 32 32 32 32 32 33 33 32 32 32 32 32 32 32 32 33 33 33 34 34 34 34 33 33 33 33 33 33 33 33 33 33 33 33 33 33 33 33 33 33 32 32 32 32 31 31 31 30 30 30 31 31 31 31 31 31 31 31 31 31 31 31 31 31 31 31 31 31 31 30 30 31 31 31 32 32 32 32 32 32 32 31 31 30 30 29 29 28 28 28 28 28 28 28 28 28 28 27 27 27 27 27 27 27 27 27 27 27 27 27 27 27 27 27 27 27 27 27 27 27 27 27 27 27 27 27 27 27 27 28 28 28 29 29 29 29 29 29 29 29 29 29 29 29 30 30 30 31 31 31 32 33 33 33 33 33 33 33 33 32 29 27 26 26 27 27 27 27 27 27 27 27 27 27 27 27 27 28 28 28 28 28 28 28 28
27 27 27 27 27 27 27 28 29 30 31 32 32 33 34 34 34 34 34 34 34 35 35 35 35 36 36 36 36 36 36 36 36 36 36 36 36 37 37 37 37 37 37 37 37 37 37 37 37 38 38 38 38 38 38 38 38 38 38 38 38 38 38 39 39 39 39 39 39 39 39 39 39 39 38 39 40 40 40 40 39 38 38 38 38 39 38 38 38 38 38 37 36 33 27 24 22 22 22 23 25 29 33 35 35 36 36 36 36 37 37 37 37 37 37 37 37 37 37 37 37 37 37 37 37 37 37 36 36 36 36 36 36 36 36 36 36 36 36 36 36 36 36 36 36 36 36 35 34 33 33 33 32 31 29 28 28 27 26 26 25 24 24 22 21 19 15 13 14 16 20 24 27 30 30 30 31 31 31 31 31 31 31 32 32 32 33 34 34 34 34 34 34 34 34 34 34 34 34 34 34 34 34 34 34 33 33 33 33 33 33 33 33 32 32 32 32 32 32 32 32 32 32 32 32 32 32 32 32 32 32 32 32 32 32 32 32 32 32 32 33 33 32 32 32 32 32 32 32 32 32 33 33 33 34 34 34 33 33 33 33 33 33 33 33 33 33 33 33 33 33 33 33 33 33 32 32 32 32 31 31 30 30 30 31 31 31 31 31 31 31 31 31 31 31 31 31 31 31 31 31 31 31 30 30 30 31 31 31 32 32 32 32 32 32 32 31 31 30 30 29 29 29 28 28 28 28 28 28 28 28 28 28 28 28 27 27 27 27 27 27 27 27 27 27 27 27 27 27 27 27 27 27 27 27 27 27 27 27 27 27 27 27 27 28 28 28 29 29 29 29 29 29 29 29 29 29 29 29 30 30 30 31 31 31 31 33 33 33 33 33 33 33 33 33 31 28 27 26 26 27 27 27 27 27 27 27 27 27 27 27 27 27 27 27 28 28 28 28 28
27 27 27 27 27 27 27 27 28 29 30 31 32 32 33 34 34 34 34 34 35 35 35 35 35 36 36 36 36 36 36 36 36 36 36 36 37 37 37 37 37 37 37 37 37 37 37 37 37 38 38 38 38 38 38 38 38 38 38 38 38 38 38 38 39 39 39 39 39 39 39 39 39 39 38 39 40 40 40 40 39 38 38 39 39 39 39 38 38 38 38 38 38 35 30 25 23 22 22 22 23 26 31 33 35 35 36 36 37 37 37 37 37 37 37 37 37 37 37 37 37 37 37 37 37 37 37 36 36 36 36 36 36 36 36 36 36 36 36 36 36 36 36 36 36 36 36 36 35 34 34 34 33 32 30 29 28 28 27 26 25 25 23 22 20 17 14 13 15 18 21 24 27 30 30 30 30 31 31 31 31 31 31 32 33 33 33 34 34 34 34 34 34 34 34 34 34 34 34 34 34 34 34 34 34 33 33 33 33 33 33 33 33 32 32 32 32 32 32 32 32 32 32 32 32 32 32 32 32 32 32 32 32 32 32 32 33 33 33 33 33 33 32 32 32 32 32 32 32 32 32 33 33 33 33 34 34 33 33 33 33 33 33 33 33 33 33 33 33 33 33 33 33 33 32 32 32 32 31 31 30 30 30 31 31 31 31 31 31 31 31 31 31 31 31 31 31 31 31 31 31 31 30 30 30 31 31 31 31 32 32 32 32 32 32 31 31 31 30 30 29 29 29 28 28 28 28 28 28 28 28 28 28 28 28 28 27 27 27 27 27 27 27 27 27 27 27 27 27 27 27 27 27 27 27 27 27 27 27 27 27 27 27 27 28 28 28 28 29 29 29 29 29 29 29 29 29 29 29 30 30 31 31 31 31 31 32 33 34 34 33 33 33 33 33 32 29 28 26 26 27 27 27 27 27 27 27 27 27 27 27 27 27 27 27 27 27 28 28 28
27 27 27 27 27 27 27 27 28 28 29 30 31 32 33 33 34 34 34 34 35 35 35 35 36 36 36 36 36 36 36 36 36 36 36 36 37 37 37 37 37 37 37 37 37 37 37 37 38 38 38 38 38 38 38 38 38 38 38 38 38 38 38 38 39 39 39 39 39 39 39 39 39 39 39 40 40 40 40 40 39 38 38 39 39 39 39 39 39 38 38 38 38 35 30 25 23 22 22 22 22 24 29 33 34 35 36 36 37 37 37 37 37 37 37 37 37 37 37 37 37 37 37 37 37 37 37 37 36 36 36 36 36 36 36 36 36 36 36 36 36 36 36 36 36 36 36 36 36 35 35 34 34 32 31 30 29 28 27 26 25 24 23 21 19 15 13 13 15 18 21 24 26 28 29 30 30 31 31 31 31 31 31 32 34 34 34 34 34 34 34 34 34 34 34 34 34 34 34 34 34 34 34 34 34 34 33 33 33 33 33 33 33 32 32 32 32 32 32 32 32 32 32 32 32 32 32 32 32 32 32 32 32 32 32 32 32 33 33 33 33 33 32 32 32 32 32 32 32 32 32 33 33 33 33 33 33 33 33 33 33 33 33 33 33 33 33 33 33 33 33 33 33 33 33 32 32 32 31 31 30 30 31 31 31 31 31 31 31 30 30 30 30 31 31 31 31 31 31 31 31 31 30 30 31 31 31 31 31 31 31 31 31 31 31 31 31 31 30 30 29 29 29 29 28 28 28 28 28 28 28 28 28 28 28 28 27 27 27 27 27 27 27 27 27 27 27 27 27 27 27 27 27 27 27 27 27 27 27 27 27 27 27 27 28 28 28 28 29 29 29 29 29 29 29 29 29 29 29 30 30 31 31 31 31 32 33 34 34 34 34 34 33 33 33 33 31 28 27 26 26 27 27 27 27 27 27 27 27 27 27 27 27 27 27 27 27 28 28 28
27 27 27 27 27 27 27 27 28 28 29 30 31 32 32 33 33 34 33 34 35 35 35 35 36 36 36 36 36 36 36 36 36 36 36 37 37 37 37 37 37 37 37 37 37 37 37 37 37 38 38 38 38 38 38 38 38 38 38 38 38 38 38 38 39 39 39 39 39 39 39 39 39 39 40 40 40 40 40 39 38 38 39 39 39 39 39 39 39 39 39 38 38 35 30 26 24 22 22 22 22 24 28 32 34 35 36 36 37 37 37 37 37 37 37 37 37 37 37 37 37 37 37 37 37 37 37 37 36 36 36 36 36 36 36 36 36 36 36 36 36 36 36 36 36 36 36 36 36 35 35 35 33 32 31 30 29 28 27 26 25 24 22 20 17 14 13 13 15 18 21 23 26 28 29 30 30 30 31 31 31 31 32 33 34 34 34 34 34 34 34 34 34 34 34 34 34 34 34 34 34 34 34 34 34 34 33 33 33 33 33 33 33 33 32 32 32 32 32 32 32 32 32 32 32 32 32 32 32 32 32 32 32 32 32 32 32 32 33 33 33 33 32 32 32 32 32 32 32 32 32 33 33 33 33 33 33 33 33 33 33 33 33 33 33 33 33 33 33 33 33 33 33 33 33 32 32 32 31 31 30 31 31 31 31 31 31 31 30 30 30 30 30 30 31 31 31 31 31 31 31 30 30 31 31 31 31 31 31 31 31 31 31 31 31 31 30 30 30 30 29 29 29 29 29 28 28 28 28 28 28 28 28 28 28 28 27 27 27 27 27 27 27 27 27 27 27 27 27 27 27 27 27 27 27 27 27 27 27 27 27 27 27 27 28 28 28 29 29 29 29 29 29 29 29 29 29 29 29 29 30 31 31 31 31 32 33 34 34 34 34 34 34 33 33 33 32 30 27 26 26 26 27 27 27 27 27 27 27 27 27 27 27 27 27 27 27 27 28 28
27 27 27 27 27 27 27 28 28 29 29 30 30 31 32 33 33 33 33 34 35 35 35 35 36 36 36 36 36 36 36 36 36 36 36 37 37 37 37 37 37 37 37 37 37 37 37 37 37 38 38 38 38 38 38 38 38 38 38 38 38 38 38 38 39 39 39 39 39 39 39 39 39 39 40 40 40 40 39 38 38 39 39 39 39 39 39 39 39 39 39 39 37 34 30 27 25 24 22 22 22 24 28 31 34 35 36 37 37 37 37 37 37 37 37 37 37 37 37 37 37 37 37 37 37 37 37 37 37 36 36 36 36 36 36 36 36 36 36 36 36 36 36 36 36 36 36 36 36 35 35 35 33 32 31 30 29 28 27 26 25 23 22 19 16 13 13 14 16 18 22 23 26 28 29 30 30 30 30 30 31 31 31 32 34 34 34 34 34 34 34 34 33 34 34 34 34 34 34 34 34 34 34 34 34 34 34 33 33 33 33 33 33 33 32 32 32 32 32 32 32 32 32 32 32 32 32 32 32 32 32 32 32 32 32 32 32 32 32 32 32 32 32 32 32 32 32 32 32 32 32 32 33 33 33 33 33 33 33 33 33 33 33 33 33 33 33 33 33 33 33 33 33 33 33 32 32 32 31 31 30 31 31 31 31 31 31 30 30 30 30 30 30 30 30 31 31 31 31 31 30 30 31 31 31 31 31 31 31 31 31 30 30 30 30 30 30 30 30 29 29 29 29 29 29 29 28 28 28 28 28 28 28 28 28 28 27 27 27 27 27 27 27 27 27 27 27 27 27 27 27 27 27 27 27 27 27 27 27 27 27 27 27 27 28 28 28 29 29 29 29 29 29 29 29 29 29 29 29 29 30 31 31 31 31 32 32 34 34 34 34 34 34 34 33 33 33 31 29 27 26 26 26 27 27 27 27 27 27 27 27 27 27 27 27 27 27 27 28 28
27 27 27 27 27 27 28 28 29 29 29 29 30 31 32 32 32 33 33 34 35 35 35 35 36 36 36 36 36 36 36 36 36 36 36 37 37 37 37 37 37 37 37 37 37 37 37 37 37 37 38 38 38 38 38 38 38 38 38 38 38 38 38 39 39 39 39 39 39 39 39 38 39 40 40 40 40 40 39 38 38 39 39 39 39 39 39 39 39 39 39 39 37 33 29 28 27 25 24 23 22 25 29 31 33 35 36 37 37 37 37 37 37 37 37 37 37 37 37 37 37 37 37 37 37 37 37 37 37 37 37 37 36 36 36 36 36 36 36 36 36 36 36 36 36 36 36 36 36 36 35 35 33 32 31 30 29 28 27 26 24 23 21 18 14 13 13 14 16 19 22 25 27 28 29 30 30 30 30 30 30 31 31 31 33 34 34 34 34 34 34 33 32 32 33 34 34 34 34 34 34 34 34 34 34 34 34 34 33 33 33 33 33 33 33 32 32 32 32 32 32 32 32 32 32 32 32 32 32 32 32 32 32 32 32 32 32 32 32 32 32 32 32 32 32 32 32 32 32 32 32 32 33 33 33 33 33 33 33 33 33 33 33 33 33 33 33 33 33 34 34 34 33 33 33 32 32 31 31 31 30 31 31 31 31 31 30 30 30 30 30 30 30 30 30 30 31 31 31 30 30 30 31 31 31 31 30 30 30 30 30 30 30 30 30 30 30 29 29 29 29 29 29 29 29 29 29 28 28 28 28 28 28 28 28 28 27 27 27 27 27 27 27 27 27 27 27 27 27 27 27 27 27 27 27 27 27 27 27 27 27 27 27 27 28 29 29 29 29 29 29 29 29 29 29 29 29 29 29 29 30 30 31 31 32 32 32 33 34 34 34 34 34 34 34 33 33 32 30 28 27 26 26 26 26 27 27 27 27 27 27 27 27 27 27 27 27 27 27 28
27 27 27 27 27 27 28 29 29 29 29 29 30 31 31 31 32 32 33 35 35 35 35 35 36 36 36 36 36 36 36 36 36 36 36 37 37 37 37 37 37 37 37 37 37 37 37 37 37 37 38 38 38 38 38 38 38 38 38 38 38 38 38 39 39 39 39 39 39 39 39 39 39 40 40 40 40 39 38 38 39 39 39 39 39 39 39 39 39 39 39 39 35 31 29 28 27 26 25 23 24 28 31 33 34 35 36 37 37 37 37 37 37 37 37 37 37 37 37 37 37 37 37 37 37 37 37 37 37 37 37 37 37 37 37 37 37 37 36 36 36 36 36 36 36 36 36 36 36 36 35 34 33 32 31 30 29 28 26 25 24 22 20 17 14 13 13 15 18 20 22 25 27 28 29 29 30 30 30 30 30 30 30 31 31 33 34 34 34 34 34 33 32 32 32 33 34 34 34 34 34 34 34 34 34 34 34 34 33 33 33 33 33 33 33 32 32 32 32 32 32 32 32 32 32 32 32 32 32 32 32 32 32 32 32 32 32 32 32 32 32 32 32 32 32 32 32 32 32 32 32 32 32 33 33 33 33 33 33 33 33 33 33 33 33 33 33 33 34 34 34 34 33 33 33 32 32 31 31 31 30 31 31 31 31 31 30 30 30 30 30 30 30 30 30 30 30 30 30 30 30 30 30 30 30 30 30 30 30 29 29 29 29 29 29 29 29 29 29 29 29 29 29 29 29 29 29 28 28 28 28 28 28 28 28 28 28 27 27 27 27 27 27 27 27 27 27 27 27 27 27 27 27 27 27 27 27 27 27 27 27 27 27 27 28 29 30 30 30 30 30 30 29 29 29 29 29 29 29 29 30 30 31 31 32 32 32 33 34 34 34 34 34 34 34 34 33 32 31 29 28 27 26 26 26 26 26 27 27 27 27 27 27 27 27 27 27 27 27 28
28 27 27 27 27 27 28 28 28 28 28 29 31 31 31 31 31 32 33 34 35 35 35 35 36 36 36 36 36 36 36 36 36 36 36 37 37 37 37 37 37 37 37 37 37 37 37 37 37 37 37 38 38 38 38 38 38 38 38 38 38 38 38 39 39 39 39 39 39 39 39 39 40 40 40 40 40 39 38 38 39 39 39 39 39 39 39 39 39 38 38 36 33 29 28 27 26 25 24 24 27 31 33 34 35 35 36 37 37 37 37 37 37 37 37 37 37 37 37 37 37 37 37 37 37 37 37 37 37 37 37 37 37 37 37 37 37 37 37 36 36 36 36 36 36 36 36 36 36 36 35 34 33 32 31 30 28 27 26 24 22 21 18 15 13 13 14 17 19 21 24 26 28 28 29 29 29 30 30 30 30 30 30 30 31 31 32 33 34 34 33 32 32 32 32 33 33 34 34 34 34 34 34 34 34 34 34 34 33 33 33 33 33 33 33 33 32 32 32 32 32 32 32 32 32 32 32 32 32 32 32 32 32 32 32 32 32 32 32 32 32 32 32 32 32 32 32 32 32 32 32 32 32 33 33 33 33 33 33 33 33 33 33 33 33 33 33 34 34 34 34 34 33 33 33 33 32 31 31 30 30 31 31 31 31 31 30 30 30 30 30 30 30 30 30 30 30 30 30 30 30 30 30 30 30 30 29 29 29 29 29 29 29 29 29 29 29 29 29 29 29 29 29 29 29 29 29 28 28 28 28 28 28 28 28 28 28 27 27 27 27 27 27 27 27 27 27 27 27 27 27 27 27 27 27 27 27 27 27 27 27 27 27 28 29 30 30 30 30 30 30 30 30 29 29 29 29 29 29 29 30 30 31 31 32 32 32 33 34 34 34 34 34 34 34 34 34 33 32 30 29 28 26 26 26 26 26 26 27 27 27 27 27 27 27 27 27 27 27 27
28 27 27 27 27 27 28 29 28 28 28 29 31 31 31 31 31 32 33 34 35 35 35 35 36 36 36 36 36 36 36 36 36 36 36 37 37 37 37 37 37 37 37 37 37 37 37 37 37 37 37 38 38 38 38 38 38 38 38 38 38 38 39 39 39 39 39 39 39 39 39 39 40 40 40 40 40 39 38 38 39 39 39 39 39 39 39 39 38 37 36 33 31 28 27 26 25 23 23 26 30 33 34 35 35 36 36 37 37 37 37 37 37 37 37 37 37 37 37 37 37 37 37 37 37 37 37 37 37 37 37 37 37 37 37 37 37 37 37 37 36 36 36 36 36 36 36 36 36 36 35 34 33 32 31 29 28 26 25 23 21 19 16 14 13 13 15 18 22 23 26 27 28 28 29 29 29 29 29 29 30 30 30 30 30 30 31 32 32 32 31 31 31 31 32 32 33 34 34 34 34 34 34 34 34 34 34 33 33 33 33 33 33 33 33 33 32 32 32 32 32 32 32 32 32 32 32 32 32 32 32 32 32 32 32 32 32 32 32 32 32 32 32 32 32 32 32 32 32 32 32 32 32 32 33 33 33 33 33 33 33 34 34 34 34 34 34 34 34 34 34 34 34 33 33 33 32 31 31 30 30 30 31 31 31 31 30 30 30 30 30 30 30 30 30 30 30 30 30 30 30 30 30 30 29 29 29 29 29 29 29 29 29 29 29 29 29 29 29 29 29 29 29 29 29 29 28 28 28 28 28 28 28 28 28 28 28 28 27 27 27 27 27 27 27 27 27 27 27 27 27 27 27 27 27 27 27 27 27 27 27 27 27 28 29 30 30 30 30 30 30 30 30 30 30 29 29 29 29 30 30 31 31 31 32 32 32 32 34 34 35 35 35 35 35 35 35 34 33 31 30 28 27 26 26 26 26 26 27 27 27 26 26 26 26 27 27 27 27 27
28 27 27 27 27 28 29 29 29 28 28 29 30 31 31 31 31 32 33 34 35 35 35 35 35 35 36 36 36 36 36 36 36 36 37 37 37 37 37 37 37 37 37 37 37 37 37 37 37 37 37 38 38 38 38 38 38 38 38 38 38 38 39 39 39 39 39 39 39 39 39 40 40 40 40 40 39 38 38 39 39 39 39 39 39 39 39 39 38 37 35 32 29 27 26 25 23 23 24 28 32 33 34 35 36 36 36 37 37 37 37 37 37 37 37 37 37 37 37 37 37 37 37 37 37 37 37 37 37 37 37 37 37 37 37 37 37 37 37 37 37 36 36 36 36 36 36 36 36 36 35 35 34 33 31 29 27 25 23 21 19 17 15 13 13 15 18 21 23 27 27 28 28 29 29 29 29 29 29 29 29 30 30 30 30 30 30 30 31 31 30 30 30 30 31 32 32 33 34 34 34 34 34 34 34 34 34 33 33 33 33 33 33 33 33 33 33 32 32 32 32 32 32 32 32 32 32 32 32 32 33 33 32 33 33 32 32 32 32 32 32 32 32 32 32 32 32 32 32 32 32 32 32 32 33 33 33 33 33 33 33 34 34 34 34 34 34 34 34 34 34 34 34 33 33 33 32 31 31 30 30 30 30 31 31 30 30 30 30 30 29 29 29 29 29 29 30 30 30 30 30 30 29 29 29 29 29 29 29 29 29 29 29 29 29 29 29 29 29 29 29 29 29 29 29 29 28 28 28 28 28 28 28 28 28 28 28 28 28 27 27 27 27 27 27 27 27 27 27 27 27 27 27 27 27 27 27 27 27 27 27 27 27 28 28 29 30 30 30 30 30 30 30 30 30 29 29 30 30 30 30 31 31 31 32 32 32 32 34 34 35 35 35 35 35 35 35 35 34 32 31 30 29 27 26 26 26 26 26 27 27 26 26 26 26 26 26 27 27 27
28 27 27 27 28 29 29 30 29 29 28 28 29 30 31 31 31 32 33 34 34 35 35 35 35 35 36 36 36 36 36 36 36 36 37 37 37 37 37 37 37 37 37 37 37 37 37 37 37 37 37 38 38 38 38 38 38 38 38 38 38 38 39 39 39 39 39 39 39 38 39 40 40 40 40 40 39 38 38 39 39 39 39 39 39 38 38 38 38 37 34 31 28 27 25 24 23 24 27 30 33 34 35 36 36 36 36 37 37 37 37 37 37 37 37 37 37 37 37 37 37 37 37 37 37 37 37 37 37 37 37 37 37 37 37 37 37 37 37 37 37 36 36 36 36 36 36 36 36 35 35 34 33 32 30 27 25 23 21 19 17 15 13 13 14 17 21 24 25 28 28 28 29 29 29 29 29 29 29 29 29 29 30 30 30 30 30 30 30 30 29 29 29 30 30 31 32 32 33 33 34 34 34 34 34 34 34 33 33 33 33 33 33 33 33 33 33 32 32 32 32 32 32 32 32 32 32 32 32 32 32 33 33 33 33 33 32 32 32 32 32 32 32 32 32 32 32 32 32 32 32 32 32 32 32 33 33 33 33 33 33 34 34 34 34 34 34 34 34 34 34 34 34 34 33 33 32 31 31 30 30 30 30 30 30 30 30 30 30 29 29 29 29 29 29 29 29 29 29 29 29 29 29 29 29 29 29 29 29 29 29 29 29 29 29 29 29 29 29 29 29 29 29 29 29 28 28 28 28 28 28 28 28 28 28 28 28 28 28 27 27 27 27 27 27 27 27 27 27 27 27 27 27 27 27 27 27 27 27 27 27 27 27 28 28 29 29 30 30 30 31 31 31 30 30 30 30 30 30 30 30 31 31 31 32 32 32 32 33 34 35 35 35 35 35 35 35 35 34 33 33 32 30 29 28 27 26 26 26 26 26 26 26 26 26 26 26 27 27 27
28 27 27 27 28 30 30 30 30 30 29 29 28 29 30 30 30 31 32 34 34 35 35 35 35 35 35 36 36 36 36 36 36 37 37 37 37 37 37 37 37 37 37 37 37 37 37 37 37 37 37 38 38 38 38 38 38 38 38 38 38 38 39 39 39 39 39 39 39 39 39 40 40 40 40 39 38 38 38 39 39 39 39 39 38 38 38 37 37 35 32 29 28 26 25 23 23 26 29 32 34 35 36 36 36 36 37 37 37 37 37 37 37 37 37 37 37 37 37 37 37 37 37 37 37 37 37 37 37 37 37 37 37 37 37 37 37 37 37 37 37 36 36 36 36 36 36 36 35 34 33 32 30 28 26 23 21 19 18 16 15 14 13 14 16 20 24 27 28 29 29 29 29 29 29 29 29 29 29 29 29 29 29 29 29 29 29 29 29 29 29 29 29 30 30 31 31 32 32 31 32 33 34 34 34 34 34 33 33 33 33 33 33 33 33 33 33 33 32 32 32 32 32 32 32 32 32 32 32 32 32 32 32 33 33 33 33 32 32 32 32 32 32 32 32 32 32 32 32 32 32 32 32 32 32 32 33 33 33 33 33 34 34 34 34 34 34 34 34 34 34 34 34 34 33 33 32 32 31 30 30 30 30 30 30 30 30 30 29 29 29 29 29 29 29 29 29 29 29 29 29 29 29 29 29 29 29 29 29 29 29 29 29 29 29 29 29 29 29 29 29 29 29 29 28 28 28 28 28 28 28 28 28 28 28 28 28 28 28 27 27 27 27 27 27 27 27 27 27 27 27 27 27 27 27 27 27 27 27 27 27 27 27 28 28 28 29 30 30 31 31 31 31 31 30 30 30 30 30 31 31 31 31 32 32 32 32 32 33 34 35 35 35 35 35 35 35 35 34 34 33 33 32 31 31 29 27 26 26 26 26 26 26 26 26 26 26 27 27 27
28 27 27 28 29 30 31 31 31 31 30 30 29 29 30 30 30 30 31 33 34 34 34 35 35 35 36 36 36 36 36 36 36 37 37 37 37 37 37 37 37 37 37 37 37 37 37 37 37 37 37 38 38 38 38 38 38 38 38 38 38 38 39 39 39 39 39 39 39 39 40 40 40 40 40 39 38 38 39 39 39 39 39 39 38 38 37 36 35 34 31 29 27 26 24 23 23 27 31 33 34 35 36 36 36 37 37 37 37 37 37 37 37 37 37 37 37 37 37 37 37 37 37 37 37 37 37 37 37 37 37 37 37 37 37 37 37 37 37 37 37 36 36 36 36 36 36 35 33 31 30 27 24 22 19 17 16 15 15 14 13 13 14 16 19 23 26 28 29 29 29 29 29 29 29 29 29 29 29 29 29 29 29 29 29 29 28 28 29 29 29 29 29 29 30 30 30 30 30 28 30 31 32 33 34 34 34 33 33 33 33 33 33 33 33 33 33 33 32 32 32 32 32 32 32 32 32 32 32 32 32 32 32 32 32 33 33 32 32 32 32 32 32 32 32 32 32 32 32 32 32 32 32 32 32 32 33 33 33 33 33 34 34 34 34 34 34 34 34 34 34 34 34 34 33 33 32 32 31 31 30 30 30 30 30 30 30 30 29 29 29 29 29 29 29 29 29 29 29 29 29 29 29 29 29 29 29 29 29 29 29 29 29 29 29 29 29 29 29 29 29 29 29 28 28 28 28 28 28 28 28 28 28 28 28 28 28 28 28 27 27 27 27 27 27 27 27 27 27 27 27 27 27 27 27 27 27 27 27 27 27 27 27 28 28 28 29 30 31 31 31 31 31 31 31 31 31 31 31 31 31 31 31 32 32 32 32 31 32 34 34 35 35 35 35 35 35 35 35 34 33 33 33 33 33 31 29 27 26 26 26 26 26 26 26 26 26 27 27 27
28 27 27 28 29 30 31 31 31 31 31 30 29 28 29 30 31 30 30 31 33 33 34 35 35 35 35 36 36 36 36 36 36 37 37 37 37 37 37 37 37 37 37 37 37 37 37 37 37 37 37 37 38 38 38 38 38 38 38 38 38 39 39 39 39 39 39 39 39 39 40 40 40 40 40 39 38 39 39 39 39 39 39 39 38 37 37 36 35 33 30 28 27 25 24 23 25 29 33 34 35 36 36 36 37 37 37 37 37 37 37 37 37 37 37 37 37 37 37 37 37 37 37 37 37 37 37 37 37 37 37 37 37 37 37 37 37 37 37 37 37 36 36 36 36 35 34 32 30 27 23 19 17 16 14 13 13 13 13 13 14 15 17 19 22 26 27 30 30 30 29 29 29 28 28 29 29 29 29 28 28 29 29 28 28 28 28 28 27 27 28 28 28 28 29 29 27 26 25 23 24 26 28 32 33 34 33 33 33 33 33 33 33 33 33 33 33 33 33 32 32 32 32 32 32 32 32 32 32 32 32 32 32 32 32 32 32 32 32 32 32 32 32 32 32 32 32 32 32 32 32 32 32 32 32 32 33 33 33 33 33 34 34 34 34 34 34 34 34 34 34 34 34 34 33 33 32 32 32 31 30 30 30 30 30 30 30 30 30 29 29 29 29 29 29 29 29 29 29 29 29 29 29 29 29 29 29 29 29 29 29 29 29 29 29 29 29 29 29 29 29 29 29 28 28 28 28 28 28 28 28 28 28 28 28 28 28 28 28 27 27 27 27 27 27 27 27 27 27 27 27 27 27 27 27 27 27 27 27 27 27 27 28 28 28 29 30 30 30 31 31 31 31 31 31 31 31 31 31 31 31 31 31 31 32 32 32 32 32 33 34 35 35 35 35 35 35 35 35 34 34 33 33 33 33 33 31 29 27 27 26 26 26 26 26 26 26 27 27 27
28 27 28 29 30 31 31 31 31 31 31 31 30 29 29 30 31 30 30 30 31 32 33 33 34 35 35 36 36 36 36 36 36 37 37 37 37 37 37 37 37 37 37 37 37 37 37 37 37 37 37 37 38 38 38 38 38 38 38 38 39 39 39 39 39 39 39 39 39 39 40 40 40 40 39 38 38 39 39 39 39 39 39 39 38 37 37 36 35 32 30 28 26 25 23 24 27 31 34 35 36 36 36 36 37 37 37 37 37 37 37 37 37 37 37 37 37 37 37 37 37 37 37 37 37 37 37 37 37 37 37 37 37 37 37 37 37 37 37 37 37 36 36 36 35 33 30 26 23 20 16 14 14 13 13 13 13 14 15 16 17 19 19 21 24 27 30 31 30 30 29 28 28 28 28 28 28 28 28 28 28 28 28 28 27 27 27 27 25 25 26 26 26 25 25 24 21 19 18 18 18 19 22 27 31 32 33 33 33 33 33 33 33 33 33 33 33 33 33 32 32 32 32 32 32 32 32 32 32 32 32 32 32 32 32 32 32 32 32 32 32 32 32 32 32 32 32 32 32 32 32 32 32 32 32 32 33 33 33 33 34 34 34 34 34 34 34 34 34 34 34 34 34 34 33 33 33 32 32 31 31 30 30 30 30 30 30 30 30 29 29 29 29 29 29 29 29 29 29 29 29 29 29 29 29 29 29 29 29 29 29 29 29 29 29 29 29 29 29 29 29 28 28 28 28 28 28 28 28 28 28 28 28 28 28 28 28 28 28 27 27 27 27 27 27 27 27 27 27 27 27 27 27 27 27 27 27 27 27 27 28 28 28 28 28 29 29 30 30 31 31 31 31 31 31 31 31 31 31 31 31 31 31 31 32 32 32 32 32 33 34 35 35 35 35 35 35 35 35 34 34 34 34 33 33 33 32 30 29 28 27 26 26 26 26 26 26 27 27 27
28 28 28 29 31 31 31 31 32 31 31 31 31 30 29 29 30 30 30 29 29 30 31 32 33 34 35 35 36 36 36 36 36 37 37 37 37 37 37 37 37 37 37 37 37 37 37 37 37 37 37 37 38 38 38 38 38 38 38 38 39 39 39 39 39 39 39 38 39 40 40 40 40 40 39 39 39 39 39 39 39 39 39 38 38 38 38 37 36 33 29 27 26 25 23 24 28 32 34 35 36 36 36 37 37 37 37 37 37 37 37 37 37 37 37 37 37 37 37 37 37 37 37 37 37 37 37 37 37 37 37 37 37 37 37 37 37 37 37 37 37 36 36 36 34 31 25 20 17 14 13 14 14 14 15 15 16 17 17 17 18 20 25 27 29 31 31 31 30 30 29 29 28 27 26 26 27 28 28 28 28 27 27 27 27 27 27 26 24 24 24 24 22 20 18 17 15 14 14 14 14 14 16 20 26 30 32 33 33 33 33 33 33 33 33 33 33 33 33 33 32 32 32 32 32 32 32 32 32 32 32 32 32 32 32 32 32 32 32 32 32 32 32 32 32 32 32 32 32 32 32 32 32 32 32 32 33 33 33 33 34 34 34 34 34 34 34 34 35 35 35 35 34 34 34 33 33 32 32 31 31 31 30 30 30 30 30 30 30 29 29 29 29 29 29 29 29 29 29 29 29 29 29 29 29 29 29 29 29 29 29 29 29 29 29 29 29 29 29 29 29 28 28 28 28 28 28 28 28 28 28 28 28 28 28 28 28 28 28 27 27 27 27 27 27 27 27 27 27 27 27 27 27 27 27 27 27 27 27 27 28 28 28 28 28 29 29 30 30 30 31 31 31 31 31 31 31 32 32 32 32 32 32 32 32 32 32 32 32 32 34 35 35 35 35 35 35 35 35 35 34 34 34 34 34 33 33 31 31 30 28 26 26 26 26 26 26 27 27 27
27 28 29 30 31 32 32 32 32 32 31 31 31 31 30 29 29 30 29 29 29 30 31 32 33 34 35 35 36 36 36 36 37 37 37 37 37 37 37 37 37 37 37 37 37 37 37 37 37 37 37 37 37 38 38 38 38 38 38 38 39 39 39 39 39 39 39 39 39 40 40 40 40 39 39 39 39 39 39 39 39 39 39 39 38 38 38 38 36 33 29 27 26 25 24 26 30 33 35 36 36 36 37 37 37 37 37 37 37 37 37 37 37 37 37 37 37 37 37 37 37 37 37 37 37 37 37 37 37 37 37 37 37 37 37 37 37 37 37 37 36 36 36 35 33 28 21 16 14 14 15 16 16 17 17 16 17 18 22 23 25 27 28 30 31 32 32 31 31 30 30 29 27 26 25 25 25 27 27 27 27 26 26 26 26 26 26 24 23 22 22 19 17 15 14 14 13 13 13 13 13 13 14 16 21 27 30 32 33 33 33 33 33 33 33 33 33 33 33 33 33 32 32 32 32 32 32 32 32 32 32 32 32 32 32 32 32 32 32 32 32 32 32 32 32 32 32 32 32 32 32 32 32 32 32 32 33 33 33 33 34 34 34 34 34 34 34 35 35 35 35 35 34 34 34 33 33 33 32 32 31 31 31 30 30 30 30 30 30 29 29 29 29 29 29 29 29 29 29 29 29 29 29 29 29 29 29 29 29 29 29 29 29 29 29 29 29 29 29 29 28 28 28 28 28 28 28 28 28 28 28 28 28 28 28 28 28 28 28 28 27 27 27 27 27 27 27 27 27 27 27 27 27 27 27 27 27 27 27 28 28 28 28 28 28 29 29 29 30 30 30 30 31 31 31 32 32 32 32 32 32 32 32 32 32 33 33 33 33 32 33 35 35 35 35 35 35 35 35 35 35 34 34 34 34 33 33 33 32 31 29 27 26 26 26 26 26 27 27 27
27 28 29 31 31 32 32 32 32 32 32 31 31 31 30 29 28 29 29 29 29 29 30 31 33 34 34 35 35 36 36 36 37 37 37 37 37 37 37 37 37 37 37 37 37 37 37 37 37 37 37 37 37 38 38 38 38 38 38 38 39 39 39 39 39 39 39 39 40 40 40 40 40 39 39 39 39 39 39 39 39 39 39 39 38 38 38 38 36 32 29 27 26 24 24 27 30 33 35 36 36 36 37 37 37 37 37 37 37 37 37 37 37 37 37 37 37 37 37 37 37 37 37 37 37 37 37 37 37 37 37 37 37 37 37 37 37 37 37 37 36 36 35 35 32 26 19 15 14 16 18 19 20 19 20 20 22 23 24 26 28 30 31 32 32 33 32 32 31 31 30 29 26 25 24 24 25 27 27 27 27 26 25 25 25 25 24 23 21 20 17 15 14 13 13 13 14 15 15 15 15 15 14 14 18 23 28 31 32 33 33 33 33 33 33 33 33 33 33 33 33 32 32 32 32 32 32 32 32 32 32 32 32 32 32 32 32 32 32 32 32 32 32 32 32 32 32 32 32 32 32 32 32 32 32 32 33 33 33 33 34 34 34 34 34 34 35 35 35 35 35 35 34 34 34 34 33 33 33 32 32 31 31 31 30 30 30 30 30 29 29 29 29 29 29 29 29 29 29 29 29 29 29 29 29 29 29 29 29 29 29 29 29 29 29 29 29 29 29 29 28 28 28 28 28 28 28 28 28 28 28 28 28 28 28 28 28 28 28 28 28 27 27 27 27 27 27 27 27 27 27 27 27 28 28 28 28 28 28 28 28 28 28 28 28 29 29 29 29 30 30 30 31 31 32 32 32 32 32 32 32 32 32 32 33 33 34 34 34 32 33 35 35 35 35 35 35 35 35 35 35 35 35 35 35 34 33 33 33 32 30 28 26 26 26 26 26 26 26 26
28 29 30 31 31 32 33 33 32 32 32 31 31 31 30 29 28 29 29 29 29 29 30 31 32 33 34 35 35 36 36 36 36 37 37 37 37 37 37 37 37 37 37 37 37 37 37 37 37 37 37 37 37 38 38 38 38 38 38 38 38 39 39 39 39 39 38 39 40 40 40 40 40 39 39 39 39 39 39 39 39 39 39 39 38 38 38 38 36 32 29 27 25 24 24 27 31 34 36 36 36 37 37 37 37 37 37 37 37 37 37 37 37 37 37 37 37 37 37 37 37 37 37 37 37 37 37 37 37 37 37 37 37 37 37 37 37 37 37 36 36 35 35 35 32 25 18 14 14 17 21 22 22 22 22 23 24 25 27 28 30 31 32 33 33 33 33 32 31 31 30 29 26 25 24 24 25 27 27 27 27 25 24 23 24 23 22 21 19 16 14 13 13 14 15 15 16 17 18 17 17 17 15 14 15 19 25 29 32 33 33 33 33 33 33 33 33 33 33 33 32 32 32 32 32 32 32 32 32 32 32 32 32 32 32 32 32 32 32 32 32 32 32 32 32 32 32 32 32 32 32 32 32 32 32 32 33 33 33 33 34 34 33 33 34 34 35 35 35 35 35 35 35 34 34 34 34 33 33 33 32 32 31 31 31 30 30 30 30 29 29 29 29 29 29 29 29 29 29 29 29 29 29 29 29 29 29 29 29 29 29 29 29 29 29 29 29 29 29 29 28 28 28 28 28 28 28 28 28 28 28 28 28 28 28 28 28 28 28 28 28 28 27 27 27 27 27 27 27 28 28 28 28 28 28 28 28 28 28 28 28 28 28 28 28 28 29 29 29 29 30 30 31 31 32 32 32 32 32 32 32 33 33 33 33 34 34 34 34 33 33 34 35 35 35 35 35 35 35 35 35 35 35 35 35 34 34 33 33 32 30 28 27 26 26 26 26 26 26 26
28 29 30 31 31 32 33 33 33 33 32 32 32 31 31 30 29 29 29 29 29 30 30 31 32 33 34 34 35 36 36 36 36 37 37 37 37 37 37 37 37 37 37 37 37 37 37 37 37 37 37 37 37 37 38 38 38 38 38 38 38 39 39 39 39 39 39 39 40 40 40 40 39 39 39 39 39 39 39 39 39 39 39 39 38 38 38 38 36 32 28 26 25 24 25 28 31 34 36 36 37 37 37 37 37 37 37 37 37 37 37 37 37 37 37 37 37 37 37 37 37 37 37 37 37 37 37 37 37 37 37 37 37 37 37 37 37 37 36 36 35 35 35 35 32 25 18 14 14 18 22 25 25 25 25 25 26 28 29 30 32 32 33 33 34 34 33 32 31 31 30 29 27 25 23 23 25 26 27 27 27 25 23 22 22 22 21 19 15 14 13 14 15 16 18 19 20 20 19 -32767 21 20 17 14 14 16 21 26 30 33 33 33 33 33 33 33 33 33 33 32 32 32 32 32 32 32 32 32 32 32 32 32 32 32 32 32 32 32 32 32 32 32 32 32 32 32 32 32 32 32 32 32 32 32 32 32 33 33 33 33 33 34 33 33 34 34 35 35 35 35 35 35 35 34 34 34 34 34 33 33 33 32 32 32 31 31 30 30 30 29 29 29 29 29 29 29 29 29 29 29 29 29 29 29 29 29 29 29 29 29 29 29 29 29 29 29 29 29 29 29 28 28 28 28 28 28 28 28 28 28 28 28 28 28 28 28 28 28 28 28 28 28 27 27 27 27 27 27 28 28 28 28 28 28 28 28 28 28 28 28 28 28 28 28 28 28 28 29 29 29 30 30 31 31 31 32 32 32 32 33 33 33 33 33 33 34 34 34 34 34 33 34 35 35 35 35 35 35 35 35 35 35 35 35 35 35 34 34 33 32 30 29 27 26 26 26 26 26 26 26
28 29 30 31 31 32 33 34 34 34 33 33 33 32 32 31 30 29 29 29 29 30 30 31 31 32 33 34 35 35 36 36 36 36 37 37 37 37 37 37 37 37 37 37 37 37 37 37 37 37 37 37 37 37 38 38 38 38 38 38 38 39 39 39 39 39 39 39 40 40 40 40 39 39 39 39 39 39 39 39 39 39 39 38 38 38 38 37 35 31 28 26 25 24 25 28 32 34 36 36 37 37 37 37 37 37 37 37 37 37 37 37 37 37 37 37 37 37 37 37 37 37 37 37 37 37 37 37 37 37 37 37 37 37 37 37 37 37 37 36 36 35 34 34 32 26 19 14 14 18 23 26 27 28 28 28 29 30 31 32 33 33 34 34 34 34 33 32 31 31 30 29 27 25 23 23 24 25 26 27 27 25 23 22 21 21 19 16 14 13 14 16 18 20 21 22 22 22 -32767 22 22 21 19 15 14 16 20 25 29 33 33 33 33 33 33 33 33 33 33 32 32 32 32 32 32 32 32 32 32 32 32 32 32 32 32 32 32 32 32 32 32 32 32 32 32 32 32 32 32 32 32 32 32 32 32 32 33 33 33 33 33 33 33 33 34 35 35 35 35 35 35 35 35 34 34 34 34 34 34 34 33 33 33 32 32 31 31 30 30 29 29 29 29 29 29 29 29 29 29 29 29 29 29 29 29 29 29 29 29 29 29 29 29 29 29 29 29 29 29 29 28 28 28 28 28 28 28 28 28 28 28 28 28 28 28 28 28 28 28 28 28 28 28 27 27 27 28 28 28 28 28 28 28 28 28 28 28 28 28 28 28 28 28 28 28 28 28 29 29 29 29 30 30 31 31 32 32 32 32 33 33 33 33 34 34 34 34 34 34 34 33 33 35 35 35 35 35 35 35 35 35 35 35 35 35 35 35 34 33 32 30 29 27 26 26 26 26 26 26 27
28 29 30 31 31 32 33 34 34 34 34 34 33 33 32 32 31 30 30 30 30 30 31 31 31 32 32 33 34 34 35 35 36 36 36 37 37 37 37 37 37 37 37 37 37 37 37 37 37 37 37 37 37 37 38 38 38 38 38 38 38 39 39 39 39 39 39 40 40 40 40 39 39 39 39 39 39 39 39 39 39 39 39 39 38 38 38 37 34 31 28 26 24 24 26 29 32 35 36 37 37 37 37 37 37 37 37 37 37 37 37 37 37 37 37 37 37 37 37 37 37 37 37 37 37 37 37 37 37 37 37 37 37 37 37 37 37 37 37 37 36 36 35 35 33 27 20 14 14 18 23 26 28 29 29 31 32 32 33 33 34 34 34 35 35 34 34 33 32 31 31 29 27 25 23 23 23 24 25 25 25 24 22 20 20 19 16 14 13 14 16 18 20 22 23 23 23 -32767 23 23 23 22 20 16 14 16 20 25 28 33 33 33 33 33 33 33 33 33 33 32 32 32 32 32 32 32 32 32 32 32 32 32 32 32 32 32 32 32 32 32 32 32 32 32 32 32 32 32 32 32 32 32 32 32 32 32 33 33 33 33 33 33 33 33 34 35 35 35 35 35 35 35 35 35 34 34 34 34 34 34 34 34 33 33 32 32 31 30 30 29 29 29 29 29 29 29 29 29 29 29 29 29 29 29 29 29 29 29 29 29 29 29 29 29 29 29 29 29 29 29 28 28 28 28 28 28 28 28 28 28 28 28 28 28 28 28 28 28 28 28 28 28 28 28 28 28 28 28 28 28 28 28 28 28 28 28 28 28 28 28 28 28 28 28 28 28 28 28 29 29 29 30 30 30 31 31 32 32 32 33 33 33 33 34 34 34 34 34 34 34 33 33 34 35 35 35 35 35 35 35 35 35 35 35 35 35 35 34 33 32 30 29 27 26 26 26 26 26 26 27
28 29 30 31 31 32 32 33 34 34 34 34 34 34 33 33 32 32 32 32 31 31 31 31 32 32 32 33 33 34 34 35 35 36 36 36 37 37 37 37 37 37 37 37 37 37 37 37 37 37 37 37 37 38 38 38 38 38 38 38 38 38 39 39 39 39 39 40 40 40 40 39 39 39 39 39 39 39 39 39 39 39 39 39 38 38 37 36 34 31 29 27 25 24 25 29 32 34 36 37 37 37 37 37 37 37 37 37 37 37 37 37 37 37 37 37 37 37 37 37 37 37 37 37 37 37 37 37 37 37 37 37 37 37 37 37 37 37 37 37 37 36 35 34 32 28 21 15 14 17 21 -32767 28 28 29 31 33 34 34 34 35 35 35 35 35 35 34 34 33 32 32 29 26 25 22 21 21 22 22 22 21 20 19 18 17 15 14 14 16 18 20 21 22 23 24 -32767 24 24 24 24 23 21 19 16 14 15 19 25 28 33 33 33 33 33 33 33 33 33 33 32 32 32 32 32 32 32 32 32 32 32 32 32 32 32 32 32 32 32 32 32 32 32 32 32 32 32 32 32 32 32 32 32 32 32 32 32 33 33 33 33 33 33 33 33 34 35 35 35 35 35 35 35 35 35 34 34 34 34 34 34 34 34 33 33 32 32 31 30 30 29 29 29 29 29 29 29 29 29 29 29 29 29 29 29 29 29 29 29 29 29 29 29 29 29 29 29 29 29 29 29 28 28 28 28 28 28 28 28 28 28 28 28 28 28 28 28 28 28 28 28 28 28 28 28 28 28 28 28 28 28 28 28 28 28 28 28 28 28 28 28 28 28 28 28 28 28 28 28 28 28 29 29 30 30 30 31 32 32 32 32 33 33 33 34 34 34 34 34 34 34 34 33 34 35 35 35 35 35 35 35 35 35 35 35 35 35 35 34 34 32 31 29 27 26 26 26 26 26 26 27
28 29 30 31 31 32 32 32 33 33 34 34 34 34 34 34 33 33 33 32 32 32 32 31 32 32 32 33 33 34 34 34 35 35 36 36 36 37 37 37 37 37 37 37 37 37 37 37 37 37 37 37 37 37 38 38 38 38 38 38 38 38 38 38 38 39 39 40 40 40 39 39 39 39 39 39 39 39 39 39 39 39 39 39 38 38 37 36 33 31 29 27 26 24 25 28 31 34 36 37 37 37 37 37 37 37 37 37 37 37 37 37 37 37 37 37 37 37 37 37 37 37 37 37 37 37 37 37 37 37 37 37 37 37 37 37 37 37 37 37 37 36 35 34 32 29 22 15 14 16 20 22 27 28 29 31 34 35 35 35 35 36 36 36 36 35 35 35 34 34 32 29 26 23 21 19 18 18 18 17 16 15 15 14 14 14 15 17 20 21 23 23 23 -32767 24 24 24 24 24 24 23 21 18 15 13 15 20 26 29 33 33 33 33 33 33 33 33 33 33 32 32 32 32 32 32 32 32 32 32 32 32 32 32 32 32 32 32 32 32 32 32 32 32 32 32 32 32 32 32 32 32 32 32 32 32 32 33 33 33 33 33 33 33 34 34 35 35 35 35 35 35 35 35 35 34 34 34 34 34 34 34 34 33 33 32 32 31 30 30 29 29 29 29 29 29 29 29 29 29 29 29 29 29 29 29 29 29 29 29 29 29 29 29 29 29 29 29 29 29 29 28 28 28 28 28 28 28 28 28 28 28 28 28 28 28 28 28 28 28 28 28 28 28 28 28 28 28 28 28 28 28 28 28 28 28 28 28 28 28 28 28 28 28 28 28 28 28 28 28 28 29 29 29 30 30 31 31 32 32 32 33 33 33 34 34 34 34 34 34 34 34 33 33 35 35 35 35 35 35 35 35 35 35 35 35 35 35 35 34 32 31 28 27 26 26 26 26 26 26 27
28 29 29 30 31 31 32 32 32 33 33 34 34 34 34 35 34 34 33 33 33 33 33 32 32 32 32 32 33 33 34 34 34 35 35 35 36 36 36 37 37 37 37 37 37 37 37 37 37 37 37 37 37 37 38 38 38 38 38 38 38 38 38 38 38 39 40 40 40 40 39 39 39 39 39 39 39 39 39 39 39 39 39 38 38 37 37 36 33 31 29 27 26 24 25 27 31 34 36 37 37 37 37 37 37 37 37 37 37 37 37 37 37 37 37 37 37 37 37 37 37 37 37 37 37 37 37 37 37 37 37 37 37 37 37 37 37 37 37 37 37 37 36 34 32 30 24 17 14 15 18 22 27 28 30 33 35 35 35 35 36 36 36 36 36 36 36 35 35 34 32 29 25 21 18 15 15 15 15 14 14 14 14 14 17 18 20 22 23 24 24 24 24 24 24 24 24 24 24 24 22 20 17 14 13 15 21 27 30 33 33 33 33 33 33 33 33 33 33 32 32 32 32 32 32 32 32 32 32 32 32 32 32 32 32 32 32 32 32 32 32 32 32 32 32 32 32 32 32 32 32 32 32 32 33 33 33 33 33 33 33 33 33 34 34 35 35 35 35 35 35 35 35 35 34 34 34 34 34 34 34 34 33 33 32 31 31 30 30 29 29 29 29 29 29 29 29 29 29 29 29 29 29 29 29 29 29 29 29 29 29 29 29 29 29 29 29 29 29 29 28 28 28 28 28 28 28 28 28 28 28 28 28 28 28 28 28 28 28 28 28 28 28 28 28 28 28 28 28 28 28 28 28 28 28 28 28 28 28 28 28 28 28 28 28 28 28 28 28 28 28 29 29 30 30 31 31 31 32 32 33 33 33 34 34 34 34 34 34 34 34 33 33 34 35 35 35 35 35 35 35 35 35 35 35 35 35 35 34 32 30 29 27 26 26 26 26 26 26 26
28 29 29 29 30 31 31 32 32 32 33 33 34 34 35 35 35 35 34 34 34 34 33 33 33 32 32 32 33 33 33 34 34 34 34 35 35 36 36 36 36 36 37 37 37 37 37 37 37 37 37 37 37 37 37 38 38 38 38 38 38 38 38 38 39 39 40 40 40 40 39 39 39 39 39 39 39 39 39 39 39 39 39 38 38 37 36 35 33 31 29 27 26 24 24 28 32 34 36 37 37 37 37 37 37 37 37 37 37 37 37 37 37 37 37 37 37 37 37 37 37 37 37 37 37 37 37 37 37 37 37 37 37 37 37 37 37 37 37 37 37 37 36 35 33 31 27 20 15 14 15 19 27 28 30 33 35 36 36 36 36 36 36 36 36 36 36 35 34 33 32 28 24 18 14 13 14 15 16 16 17 18 15 16 19 22 24 24 25 25 -32767 25 25 25 25 25 24 24 24 23 22 19 16 14 13 16 21 27 31 33 33 33 33 33 33 33 33 33 33 32 32 32 32 32 32 32 32 32 32 32 32 32 32 32 32 32 32 32 32 32 32 32 32 32 32 32 32 32 32 32 32 32 33 33 33 33 33 33 33 33 33 33 33 34 35 35 35 35 35 35 35 35 35 35 34 34 34 34 34 34 34 34 33 33 32 31 31 30 30 29 29 29 29 29 29 29 29 29 29 29 29 29 29 29 29 29 29 29 29 29 29 29 29 29 29 29 29 29 29 29 29 28 28 28 28 28 28 28 28 28 28 28 28 28 28 28 28 28 28 28 28 28 28 28 28 28 28 28 28 28 28 28 28 28 28 28 28 28 28 28 28 28 28 28 28 28 28 28 28 28 28 29 29 30 30 30 31 31 32 32 33 33 33 34 34 34 34 35 35 35 35 34 33 34 35 35 35 35 35 35 35 35 35 35 35 35 35 34 33 32 30 29 27 27 26 26 26 26 26 26
28 29 29 29 30 31 31 32 32 32 33 33 33 34 35 35 35 35 35 35 34 34 34 34 33 33 32 33 33 33 33 33 33 34 34 34 35 35 36 36 36 36 36 36 36 37 37 37 37 37 37 37 37 37 38 38 38 38 38 38 38 38 38 38 39 39 40 40 40 40 39 39 39 39 39 39 39 39 39 39 39 39 38 38 38 37 36 35 33 31 29 27 25 24 25 29 32 34 36 37 37 37 37 37 37 37 37 37 37 37 37 37 37 37 37 37 37 37 37 37 37 37 37 37 37 37 37 37 37 37 37 37 37 37 37 37 37 37 37 37 37 37 36 35 34 32 29 24 17 14 14 17 -32767 28 30 33 35 36 36 36 36 36 36 36 36 36 35 35 34 33 31 27 22 15 14 16 17 19 21 22 21 22 -32767 24 26 26 26 26 26 26 25 25 25 25 25 25 25 24 24 23 20 17 15 13 14 17 22 27 31 33 33 33 33 33 33 33 33 33 33 33 32 32 32 32 32 32 32 32 32 32 32 32 32 32 32 32 32 32 32 32 32 32 32 32 32 32 32 32 32 33 33 33 33 33 33 33 33 33 33 33 33 33 33 34 35 35 35 35 35 35 35 35 35 34 34 34 34 34 34 34 34 34 33 33 32 31 31 30 29 29 29 29 29 29 29 29 29 29 29 29 29 29 29 29 29 29 29 29 29 29 29 29 29 29 29 29 29 29 29 29 29 28 28 28 28 28 28 28 28 28 28 28 28 28 28 28 28 28 28 28 28 28 28 28 28 28 28 28 28 28 28 28 28 28 28 28 28 28 28 28 28 28 28 28 28 28 28 28 28 28 28 29 29 30 30 30 30 31 31 32 32 33 33 34 34 34 35 35 35 35 35 34 33 33 35 35 35 35 35 35 35 35 35 35 35 35 35 35 34 32 30 28 27 27 27 26 26 26 26 26
29 29 29 29 30 31 31 32 32 32 33 33 33 34 35 35 35 35 35 35 35 35 34 34 34 33 33 33 33 33 33 33 33 33 33 34 34 35 35 35 36 36 36 36 36 36 36 37 37 37 37 37 37 37 38 38 38 38 38 38 38 38 38 38 39 39 40 40 40 39 39 39 39 39 39 39 39 39 39 39 39 39 38 38 37 37 36 35 33 30 28 27 25 23 25 29 33 35 36 37 37 37 37 37 37 37 37 37 37 37 37 37 37 37 37 37 37 37 37 37 37 37 37 37 37 37 37 37 37 37 37 37 37 37 37 37 37 37 37 37 37 37 36 36 35 33 31 27 21 15 13 15 20 27 29 32 35 36 36 36 36 35 35 35 35 35 34 34 33 32 30 26 19 14 15 19 22 23 25 25 -32767 26 26 26 27 27 27 27 26 26 26 25 25 25 25 25 24 24 24 23 19 16 14 13 14 18 23 28 31 33 33 33 33 33 33 33 33 33 33 33 33 32 32 32 32 32 32 32 32 32 32 32 32 32 32 32 32 32 32 32 32 32 32 32 32 32 33 33 33 33 33 33 33 33 33 33 33 33 33 33 34 34 34 35 35 35 35 35 35 35 35 35 35 34 34 34 34 34 34 34 34 34 33 32 32 31 30 30 29 29 29 29 29 29 29 29 29 29 30 30 30 29 29 29 29 29 29 29 29 29 29 29 29 29 29 29 29 29 29 29 28 28 28 28 28 28 28 28 28 28 28 28 28 28 28 28 28 28 28 28 28 28 28 28 28 28 28 28 28 28 28 28 28 28 28 28 28 28 28 28 28 28 28 28 28 28 28 28 28 28 28 28 29 29 30 30 30 31 31 32 32 32 33 33 34 34 35 35 35 35 35 34 33 33 34 35 35 35 35 35 35 35 35 35 35 35 35 35 34 32 30 28 27 27 27 27 26 26 26 26
29 29 29 29 30 31 31 32 32 32 32 33 34 35 35 36 36 35 35 35 35 35 35 35 34 33 33 33 33 33 33 33 33 33 33 33 33 34 34 35 35 35 36 36 36 36 36 37 37 37 37 37 37 37 38 38 38 38 38 38 38 38 38 39 39 40 40 40 40 39 39 39 39 39 39 39 39 39 39 39 39 39 38 38 37 37 36 34 32 30 28 26 25 23 25 29 33 35 36 37 37 37 37 37 37 37 37 37 37 37 37 37 37 37 37 37 37 37 37 37 37 37 37 37 37 37 37 37 37 37 37 37 37 37 37 37 37 37 37 37 37 37 37 36 35 33 32 29 24 17 14 14 17 26 28 32 34 35 35 35 35 35 35 35 34 34 33 33 32 31 29 24 17 14 17 22 24 25 26 27 27 27 27 27 27 27 27 27 26 26 26 26 25 25 25 25 24 24 23 21 17 15 13 13 16 20 24 28 30 33 33 33 33 33 33 33 33 33 33 33 33 32 32 32 32 32 32 32 32 32 32 32 32 32 32 32 32 32 32 32 32 32 32 32 32 33 33 33 33 33 33 33 33 33 33 33 33 33 33 34 34 34 35 35 35 35 35 35 35 35 34 34 34 34 34 34 34 34 34 34 34 34 33 32 31 31 30 30 29 29 29 29 29 29 29 29 30 30 30 30 30 30 29 29 29 29 29 29 29 29 29 29 29 29 29 29 29 29 29 29 29 28 28 28 28 28 28 28 28 28 28 28 28 28 28 28 28 28 28 28 28 28 28 28 28 28 28 28 28 28 28 28 28 28 28 28 28 28 28 28 28 28 28 28 28 28 28 28 28 28 28 28 29 29 29 30 30 31 31 32 32 32 33 33 34 34 35 35 35 35 35 34 33 33 34 35 35 35 35 35 35 35 35 35 35 35 35 35 34 32 30 28 27 27 27 27 27 26 26 26
29 29 29 30 30 31 31 32 32 32 32 33 34 35 36 36 36 36 36 36 35 35 35 35 34 34 33 33 33 33 33 33 33 33 33 33 33 33 34 34 35 35 35 35 36 36 36 36 37 37 37 37 37 37 38 38 38 38 38 38 38 38 38 39 39 39 40 40 39 39 39 39 39 39 39 39 39 39 39 39 39 39 38 38 37 36 35 33 31 30 28 26 24 24 26 30 34 35 36 37 37 37 37 37 37 37 37 37 37 37 37 37 37 37 37 37 37 37 37 37 37 37 37 37 37 37 37 37 37 37 37 37 37 37 37 37 37 37 37 37 37 37 37 36 35 34 32 30 25 19 14 13 15 -32767 28 31 33 34 34 34 34 34 34 34 34 34 33 32 31 29 27 23 15 14 17 22 25 26 27 27 27 27 27 27 27 27 27 27 26 26 26 26 25 25 25 25 24 23 21 19 16 14 13 14 16 20 24 27 31 33 34 34 34 34 33 33 33 33 33 33 33 32 32 32 32 32 32 32 32 32 32 32 32 32 32 32 32 32 32 32 32 32 32 32 33 33 33 33 33 33 33 33 33 33 33 33 33 33 34 34 35 35 35 35 35 35 35 35 35 34 34 34 34 34 34 34 34 34 34 34 34 33 33 32 31 31 30 29 29 29 29 29 29 29 29 30 30 30 30 30 30 30 30 29 29 29 29 29 29 29 29 29 29 29 29 29 29 29 29 29 29 28 28 28 28 28 28 28 28 28 28 28 28 28 28 28 28 28 28 28 28 28 28 28 28 28 28 28 28 28 28 28 28 28 28 28 28 28 28 28 28 28 28 28 28 28 28 28 28 28 28 28 28 29 29 29 30 31 31 32 32 32 33 33 34 34 35 35 35 35 35 35 34 33 34 35 35 35 35 35 35 35 35 35 35 35 35 35 34 32 30 28 27 27 27 27 27 26 26 26
29 29 29 30 30 31 31 32 32 32 32 33 34 35 36 36 36 36 36 36 36 36 35 35 35 34 33 33 33 33 33 33 33 33 33 33 33 33 34 34 34 35 35 35 35 36 36 36 37 37 37 37 37 38 38 38 38 38 38 38 38 38 38 39 39 39 40 40 39 39 39 39 39 39 39 39 39 39 39 39 39 39 38 38 37 36 35 33 31 30 28 26 24 24 27 32 34 36 36 37 37 37 37 37 37 37 37 37 37 37 37 37 37 37 37 37 37 37 37 37 37 37 37 37 37 37 37 37 37 37 37 37 37 37 37 37 37 37 37 37 37 37 37 36 35 34 33 30 26 21 16 13 13 17 27 30 32 33 33 32 32 32 33 33 33 33 33 32 31 28 26 21 14 14 16 22 25 27 27 27 27 27 27 27 27 27 27 27 27 26 26 26 26 25 25 25 24 22 20 17 15 13 13 14 18 21 23 25 30 32 34 34 34 34 33 33 33 33 33 33 33 32 32 32 32 32 32 32 32 32 32 32 32 32 32 32 32 32 33 33 33 33 33 33 33 33 33 33 33 33 33 33 34 34 34 34 34 34 35 35 35 35 35 35 35 35 35 35 34 34 34 34 34 34 34 34 34 34 34 34 34 33 32 32 31 30 30 29 29 29 29 29 29 29 29 30 30 30 30 30 30 30 30 30 30 30 30 30 30 30 30 30 30 30 29 29 29 29 29 29 29 28 28 28 28 28 28 28 28 28 28 28 28 28 28 28 28 28 28 28 28 28 28 28 28 28 28 28 28 28 28 28 28 28 28 28 28 28 28 28 28 28 29 29 29 29 28 28 28 28 28 28 28 29 29 29 30 31 31 32 32 32 33 34 34 34 35 35 35 35 35 35 34 33 33 35 35 35 35 35 35 35 35 35 35 35 35 35 34 32 30 28 27 27 27 27 27 26 26 26
29 29 30 30 31 31 32 32 32 32 33 33 34 35 36 36 36 36 36 36 36 36 36 35 35 35 34 33 33 33 33 33 33 33 33 33 33 33 33 34 34 34 35 35 35 36 36 36 36 37 37 37 37 38 38 38 38 38 38 38 38 38 38 39 39 39 39 39 39 38 39 39 39 39 39 39 39 39 39 39 39 39 38 37 37 36 35 34 32 30 28 26 24 25 28 32 35 36 36 37 37 37 37 37 37 37 37 37 37 37 37 37 37 37 37 37 37 37 37 37 37 37 37 37 37 37 37 37 37 37 37 37 37 37 37 37 37 37 37 37 37 37 37 36 36 35 33 30 27 22 17 14 13 16 -32767 30 32 32 31 30 29 30 31 32 32 33 33 32 31 29 27 22 14 13 16 22 25 27 27 27 27 27 27 27 27 27 27 27 27 26 26 26 26 26 25 25 23 21 18 16 14 13 14 16 19 22 23 23 29 32 34 34 34 34 33 33 33 33 33 33 33 32 32 32 32 32 32 32 32 33 33 33 33 33 33 33 33 33 33 33 33 33 33 33 33 33 33 33 33 33 34 34 35 35 35 35 35 35 35 35 35 35 35 35 35 35 35 34 34 34 34 34 34 34 34 34 34 34 34 34 33 33 32 31 31 30 30 29 29 29 29 29 29 29 30 30 30 30 30 30 30 30 30 31 31 31 31 31 31 30 30 30 30 30 30 29 29 29 29 29 29 29 28 28 28 28 28 28 28 28 28 28 28 28 28 28 28 28 28 28 28 28 28 28 28 28 28 28 28 28 28 28 28 28 28 28 28 28 28 29 29 29 29 29 29 29 29 28 28 28 28 28 28 29 29 29 30 31 31 32 32 32 33 34 34 34 35 35 35 35 35 35 35 33 33 34 35 35 35 35 35 35 35 35 35 35 35 35 34 32 30 28 27 27 27 27 27 26 26 26
30 30 30 30 31 32 32 32 33 33 33 33 34 35 36 36 36 36 37 37 37 36 36 36 35 35 34 33 33 33 33 33 33 33 33 33 33 33 33 33 34 34 34 35 35 36 36 36 37 37 37 37 37 38 38 38 38 38 38 38 38 38 38 39 39 39 39 39 38 38 39 39 39 39 39 39 39 39 39 39 39 39 38 37 37 36 35 34 32 30 28 26 24 25 30 33 35 36 36 37 37 37 37 37 37 37 37 37 37 37 37 37 37 37 37 37 37 37 37 37 37 37 37 37 37 37 37 37 37 37 37 37 37 37 37 37 37 37 37 37 37 37 37 37 37 35 33 31 28 24 20 16 14 15 21 29 31 30 29 27 26 27 29 30 31 32 32 32 31 29 27 22 14 13 15 21 24 27 27 27 27 28 28 28 27 27 27 27 27 26 26 26 26 26 25 25 23 20 17 15 15 14 16 18 21 23 24 25 28 32 34 34 34 34 34 33 33 33 33 33 33 33 32 32 32 32 32 32 32 33 33 33 33 33 33 33 33 33 33 33 33 33 33 33 33 33 34 34 34 34 35 35 36 36 36 36 36 36 36 36 36 35 35 35 35 34 34 34 34 34 34 34 33 33 33 33 34 34 34 33 33 33 32 31 31 30 29 29 29 29 29 29 29 29 30 30 30 31 31 31 30 31 32 32 32 32 32 32 32 32 31 31 31 30 30 29 29 29 29 29 29 29 29 28 28 28 28 28 28 28 28 28 28 28 28 28 28 28 28 28 28 28 28 28 28 28 28 28 28 28 28 28 28 28 28 28 28 28 29 29 29 29 29 29 29 29 29 28 28 28 28 28 28 29 29 30 30 31 31 32 32 33 33 33 34 34 35 35 35 35 35 35 35 34 33 34 35 35 35 35 35 35 35 35 35 35 35 35 34 32 30 28 27 27 27 27 27 26 26 26
30 30 30 30 31 32 32 33 34 34 34 35 35 36 36 37 37 37 37 37 37 37 36 36 35 35 34 33 33 33 33 33 33 33 33 33 33 33 33 33 34 34 34 35 35 36 36 36 37 37 37 37 37 38 38 38 38 38 38 38 38 38 38 39 39 39 39 39 38 38 39 39 39 39 39 39 39 39 39 39 39 39 38 37 37 36 35 34 31 29 27 25 24 26 31 34 35 36 37 37 37 37 37 37 37 37 37 37 37 37 37 37 37 37 37 37 37 37 37 37 37 37 37 37 37 37 37 37 37 37 37 37 37 37 37 37 37 37 37 37 37 37 37 37 37 36 35 33 30 27 23 19 15 14 18 28 29 29 27 25 24 24 27 28 29 30 31 30 29 28 26 21 14 13 15 21 25 27 27 28 28 28 28 28 28 27 27 27 27 27 26 26 26 26 25 24 22 19 16 15 15 16 18 21 23 24 24 26 29 32 34 34 34 34 34 34 33 33 33 33 33 33 33 32 32 32 32 33 33 33 33 33 33 33 33 33 33 33 33 33 33 33 33 33 33 34 34 35 35 35 35 35 36 36 36 36 36 36 36 36 36 35 35 35 35 34 34 34 34 34 33 33 33 33 33 33 33 33 33 33 33 32 32 31 30 30 29 29 29 29 29 29 29 30 30 30 31 32 32 32 32 32 33 33 33 33 33 33 33 32 32 32 31 31 30 30 29 29 29 29 29 29 29 29 28 28 28 28 28 28 28 28 28 28 28 28 28 28 28 28 28 28 28 28 28 28 28 28 28 28 28 28 28 28 28 28 29 29 29 29 29 29 29 29 29 29 29 29 28 28 28 29 29 29 29 30 30 31 31 32 32 33 33 33 34 35 35 35 35 35 35 35 35 34 33 34 35 35 35 35 35 35 35 35 35 35 35 34 33 31 30 28 27 27 27 27 26 26 26 26
31 31 31 31 31 32 33 33 34 35 35 35 36 36 37 37 37 37 38 38 37 37 36 36 35 35 34 33 33 33 33 33 33 33 33 33 33 33 33 34 34 34 34 35 36 36 36 36 37 37 37 37 37 37 38 38 38 38 38 38 38 38 38 39 39 39 39 38 38 38 39 39 39 39 39 39 39 39 39 39 39 38 38 37 37 36 35 33 30 28 26 25 25 28 32 34 35 36 37 37 37 37 37 37 37 37 37 37 37 37 37 37 37 37 37 37 37 37 37 37 37 37 37 37 37 37 37 37 37 37 37 37 37 37 37 37 37 37 37 37 37 37 37 37 37 37 36 34 32 30 26 22 17 14 16 -32767 28 29 28 25 24 24 25 26 27 28 29 28 26 25 24 20 14 13 16 22 25 27 27 28 28 28 28 28 28 27 27 27 27 27 27 27 27 26 25 24 21 18 15 15 15 17 20 22 24 24 25 26 29 32 34 34 34 34 34 34 33 33 33 33 33 33 33 33 33 33 33 33 33 33 33 33 33 34 34 34 34 34 34 34 34 34 34 34 34 34 34 35 35 35 35 36 36 36 36 36 36 36 36 36 36 35 35 35 34 34 34 34 34 34 33 33 33 33 33 33 33 33 33 33 33 32 32 31 30 30 29 29 29 29 29 29 29 30 30 31 32 32 32 33 33 33 33 33 33 33 33 33 33 33 33 32 32 31 30 30 29 29 29 29 29 29 29 29 28 28 28 28 28 28 28 28 28 28 28 28 28 28 28 28 28 28 28 28 28 28 28 28 28 28 28 28 28 28 28 29 29 29 29 29 29 29 29 29 29 29 29 29 29 29 29 29 29 29 29 30 30 31 31 32 32 33 33 33 34 34 35 35 35 35 35 35 35 35 33 33 35 35 35 35 35 35 35 35 35 35 35 34 33 31 29 28 27 27 27 27 26 26 26 27
32 32 32 32 32 33 33 34 34 35 35 36 36 37 37 38 38 38 38 38 37 37 36 36 35 35 34 33 33 33 33 33 33 33 33 33 33 33 33 34 34 34 35 35 36 36 36 37 37 37 37 37 37 37 38 38 38 38 38 38 38 38 39 39 39 39 39 38 38 39 39 39 39 39 39 39 39 38 38 38 38 38 38 37 37 36 35 32 29 27 26 24 25 30 33 35 36 36 37 37 37 37 37 37 37 37 37 37 37 37 37 37 37 37 37 37 37 37 37 37 37 37 37 37 37 37 37 37 37 37 37 37 37 37 37 37 37 37 37 37 37 37 37 37 37 37 36 35 34 32 29 26 20 15 14 19 27 28 28 26 24 23 24 24 25 26 26 25 24 23 22 19 14 14 18 23 26 27 28 28 28 28 28 28 28 28 27 27 27 27 27 27 27 26 25 24 20 17 15 15 17 19 21 23 24 -32767 25 27 30 32 34 34 34 34 34 34 33 33 33 33 33 33 33 33 33 33 33 33 33 33 33 33 34 34 34 34 34 34 34 34 34 34 34 34 34 34 35 35 35 35 36 36 36 36 36 36 36 36 36 36 36 35 35 34 34 34 34 34 34 33 33 33 33 33 33 33 33 33 33 33 32 32 32 31 30 29 29 29 29 29 29 29 30 30 31 31 32 32 33 33 34 34 34 34 34 34 34 34 34 34 33 33 32 31 30 30 29 29 29 29 29 29 29 29 29 28 28 28 28 28 28 28 28 28 28 28 28 28 28 28 28 28 28 28 28 28 28 28 28 28 28 28 28 28 28 29 29 29 29 29 29 29 29 29 29 29 29 29 29 29 29 29 29 29 29 30 30 31 31 32 32 33 33 33 34 34 35 35 35 35 35 35 35 35 34 33 34 35 35 35 35 35 35 35 35 35 35 34 32 30 29 27 26 26 26 26 26 26 27 28
33 33 33 33 33 33 34 34 34 35 35 36 37 37 38 38 38 38 38 38 37 37 36 36 35 35 34 33 33 33 33 33 33 33 33 33 33 33 34 34 34 35 35 36 36 36 36 37 37 37 37 37 37 38 38 38 38 38 38 38 38 38 39 39 39 39 38 38 38 39 39 39 39 39 39 38 38 38 38 38 38 38 37 37 37 36 34 31 28 26 25 24 27 31 34 35 36 36 37 37 37 37 37 37 37 37 37 37 37 37 37 37 37 37 37 37 37 37 37 37 37 37 37 37 37 37 37 37 37 37 37 37 37 37 37 37 37 37 37 37 37 37 37 37 37 37 37 36 35 34 32 29 22 16 13 15 -32767 27 27 25 24 23 23 23 23 24 24 23 22 22 20 17 13 14 18 24 27 28 29 29 28 28 28 28 28 28 28 28 27 27 27 27 27 26 25 23 19 16 15 16 18 20 22 24 24 25 25 27 30 33 34 34 34 34 34 34 33 33 33 33 33 33 33 33 33 33 33 33 33 33 33 33 34 34 34 34 34 34 34 34 34 34 34 35 35 35 35 35 35 35 36 36 36 36 36 36 36 36 36 36 35 35 35 34 34 34 34 34 34 33 33 33 33 33 33 33 33 33 33 32 32 32 31 30 30 29 29 29 29 29 29 29 30 30 31 32 32 33 33 34 34 35 35 35 35 35 35 34 34 34 33 33 32 31 30 30 29 29 29 29 29 29 29 29 29 29 28 28 28 28 28 28 28 28 28 28 28 28 28 28 28 28 28 28 28 28 28 28 28 28 28 28 28 28 28 29 29 29 29 29 29 29 29 29 29 29 29 29 29 29 29 29 29 29 29 30 30 31 31 32 32 33 33 33 34 34 35 35 35 35 35 35 35 35 34 33 34 35 35 35 35 35 35 35 35 35 35 34 32 30 28 27 26 26 26 26 26 27 27 28
33 33 33 34 34 34 34 35 35 35 35 36 37 38 38 38 38 38 38 38 37 37 36 36 35 35 34 33 33 33 33 33 33 33 33 33 33 33 34 34 34 35 35 36 36 36 37 37 37 37 37 37 37 38 38 38 38 38 38 38 38 38 39 39 39 39 38 38 38 38 39 39 39 39 38 38 38 38 38 38 38 37 37 37 36 35 33 30 27 25 24 25 29 32 34 36 36 36 37 37 37 37 37 37 37 37 37 37 37 37 37 37 37 37 37 37 37 37 37 37 37 37 37 37 37 37 37 37 37 37 37 37 37 37 37 37 37 37 37 37 37 37 37 37 37 37 37 36 36 35 33 30 25 18 14 14 17 26 25 23 23 22 22 22 22 23 23 22 22 21 19 14 13 14 20 25 28 29 30 30 29 29 29 28 28 28 28 28 28 28 28 27 27 26 23 21 17 15 16 18 20 22 23 23 24 25 25 27 29 32 34 34 34 34 34 34 33 33 33 33 33 33 33 33 33 33 33 33 33 33 33 34 34 34 34 34 34 34 34 34 34 34 35 35 35 35 35 35 35 35 36 36 36 36 36 36 36 36 36 36 35 35 34 34 34 34 34 34 33 33 33 33 33 33 33 33 32 32 32 32 32 32 31 30 30 29 29 29 29 29 29 29 30 30 30 31 32 33 34 34 35 35 35 35 35 35 35 35 34 34 33 33 32 31 31 30 30 29 29 29 29 29 29 29 29 29 29 28 28 28 28 28 28 28 28 28 28 28 28 28 28 28 28 28 28 28 28 28 28 28 28 28 28 28 29 29 29 29 29 29 29 29 29 29 29 29 29 29 29 29 29 29 29 29 29 30 30 31 31 32 32 32 33 33 33 34 34 35 35 35 35 35 35 35 35 33 33 35 35 35 35 35 35 35 35 35 35 34 32 30 28 26 26 26 26 26 27 27 28 28
34 34 34 34 34 34 35 35 35 35 36 37 37 38 38 38 38 38 38 38 37 37 36 36 35 35 34 33 33 33 33 33 33 33 33 33 33 33 34 34 35 35 36 36 36 37 37 37 37 37 37 37 37 38 38 38 38 38 38 38 38 39 39 39 39 38 38 38 38 38 38 38 38 38 38 38 38 38 37 37 37 37 37 36 36 35 32 29 26 25 24 26 30 34 35 36 36 36 36 37 37 37 37 37 37 37 37 37 37 37 37 37 37 37 37 37 37 37 37 37 37 37 37 37 37 37 37 37 37 37 37 37 37 37 37 37 37 37 37 37 37 37 37 37 37 37 37 36 36 35 34 31 26 21 15 13 14 -32767 21 22 22 22 22 22 22 22 22 22 21 20 17 14 13 16 23 27 29 30 31 31 30 30 30 29 28 28 28 28 28 28 28 27 26 24 22 18 16 15 17 19 21 22 23 -32767 24 25 25 26 29 32 34 34 34 34 34 34 34 33 33 33 33 33 33 33 33 33 33 33 33 33 33 34 34 34 34 34 34 34 34 34 34 35 35 35 35 35 35 35 35 35 36 36 36 36 36 36 36 36 36 36 35 35 34 34 34 34 34 34 33 33 33 33 33 33 33 33 32 32 32 31 31 31 30 30 30 29 29 29 29 29 29 29 30 30 30 31 32 33 34 34 35 35 35 35 35 35 35 35 34 34 33 33 32 32 31 30 30 29 29 29 29 29 29 29 29 29 29 28 28 28 28 28 28 28 28 28 28 28 28 28 28 28 28 28 28 28 28 28 28 28 28 28 28 28 29 29 29 29 29 29 29 29 29 29 29 29 29 29 29 29 29 29 29 29 29 29 30 30 31 31 32 32 32 33 33 33 34 34 35 35 35 35 35 35 35 34 33 34 35 35 35 35 35 35 35 35 35 33 31 29 28 27 26 26 27 27 27 28 28 28
35 35 35 35 35 35 35 35 36 36 36 37 37 38 38 38 38 38 38 38 38 37 36 36 35 34 34 33 33 33 33 33 33 33 33 33 33 34 34 35 35 36 36 36 37 37 37 37 37 37 37 37 38 38 38 38 38 38 38 38 38 39 39 39 39 38 38 38 38 38 38 38 38 38 38 38 37 37 37 37 37 37 36 36 35 34 31 28 26 24 25 29 32 34 35 36 36 36 36 36 37 37 37 37 37 37 37 37 37 37 37 37 37 37 37 37 37 37 37 37 37 37 37 37 37 37 37 37 37 37 37 37 37 37 37 37 37 37 37 37 37 37 37 37 37 37 36 36 36 35 34 31 28 23 18 15 14 15 19 20 21 22 21 21 22 22 22 21 21 19 16 13 14 19 25 28 29 31 31 31 31 30 30 30 29 29 28 28 28 28 27 27 25 23 19 16 15 17 19 21 22 23 23 24 24 25 25 26 28 31 34 34 34 34 34 34 34 34 33 33 33 33 33 33 33 33 33 33 33 33 33 34 34 34 34 34 34 34 34 34 35 35 35 35 35 35 35 35 35 36 36 36 36 36 36 36 36 36 36 36 35 35 35 34 34 34 34 34 33 33 33 33 33 33 33 32 32 32 32 31 30 30 30 30 30 29 29 29 29 29 29 29 30 30 30 31 33 33 34 35 35 35 35 35 35 35 35 35 34 34 34 33 32 32 31 30 30 29 29 29 29 29 29 29 29 29 29 29 28 28 28 28 28 28 28 28 28 28 28 28 28 28 28 28 28 28 28 28 28 28 28 28 28 28 29 29 29 29 29 29 29 29 29 29 29 29 29 29 29 29 29 29 29 29 29 29 30 30 30 31 31 31 31 32 33 33 34 34 34 35 35 35 35 35 35 34 33 34 35 35 35 35 35 35 35 35 34 33 31 29 28 27 26 27 27 27 27 28 28 28
35 35 35 35 35 35 35 36 36 37 37 37 38 38 38 38 38 38 38 38 38 37 37 36 35 35 34 33 33 33 33 33 33 33 33 33 34 34 35 35 35 36 36 37 37 37 37 37 37 37 37 37 38 38 38 38 38 38 38 38 39 39 39 39 39 38 38 38 38 38 38 38 38 38 38 37 37 37 37 37 37 36 36 36 35 33 30 27 25 25 27 31 34 35 36 36 36 36 36 36 36 37 37 37 37 37 37 37 37 37 37 37 37 37 37 37 37 37 37 37 37 37 37 37 37 37 37 37 37 37 37 37 37 37 37 37 37 37 37 37 37 37 37 37 37 37 36 36 36 36 34 32 29 26 23 19 15 14 15 17 19 20 21 21 21 21 21 21 21 19 15 14 16 22 27 29 31 31 31 31 31 31 31 30 29 29 29 28 28 28 27 25 23 20 17 15 16 18 21 22 23 23 23 24 24 25 25 26 27 31 34 34 34 34 34 34 34 34 33 33 33 33 33 33 33 33 33 33 33 33 33 34 34 34 34 34 34 34 34 35 35 35 35 35 35 35 35 35 35 36 36 36 36 36 36 36 36 36 36 36 35 35 35 35 34 34 34 34 33 33 33 33 33 33 33 32 32 32 31 31 30 30 30 30 30 30 29 29 29 29 29 29 30 30 30 31 33 34 34 35 35 35 35 35 35 35 35 35 35 34 34 33 33 32 31 30 30 30 29 29 29 29 29 29 29 29 29 29 28 28 28 28 28 28 28 28 28 28 28 28 28 28 28 28 28 28 28 28 28 28 28 28 28 29 29 29 29 29 29 29 29 29 29 29 29 29 29 29 29 29 29 29 29 29 29 29 29 30 30 30 30 30 30 31 32 33 33 34 34 34 35 35 35 35 35 35 33 34 35 35 35 35 35 35 35 35 34 33 31 29 28 27 27 27 27 27 28 28 28 28
36 36 36 36 36 36 36 36 36 37 37 38 38 38 38 38 38 38 38 38 38 37 36 36 35 35 34 33 33 33 33 33 34 33 34 34 34 35 35 35 36 36 37 37 37 37 38 38 38 38 38 38 38 38 38 38 38 38 38 38 39 39 39 39 38 38 38 38 38 38 38 38 38 38 37 37 37 37 37 37 36 36 36 35 34 32 29 27 25 25 28 32 34 35 36 36 36 36 36 36 36 37 37 37 37 37 37 37 37 37 37 37 37 37 37 37 37 37 37 37 37 37 37 37 37 37 37 37 37 37 37 37 37 37 37 37 37 37 37 37 37 37 37 37 37 37 37 36 36 36 35 32 29 27 26 24 19 15 14 16 17 19 20 21 21 21 21 21 20 19 14 15 20 25 28 30 31 31 31 31 31 31 31 30 29 29 29 28 28 27 25 23 20 18 16 16 17 20 22 23 23 24 24 24 24 24 25 25 27 31 34 35 35 35 34 34 34 34 33 33 33 33 33 33 33 33 33 33 33 33 33 34 34 34 34 34 34 34 34 34 35 35 35 35 35 35 35 35 35 35 36 36 36 36 36 36 36 36 36 36 35 35 35 35 35 34 34 34 34 33 33 33 33 33 33 33 32 32 31 31 30 30 30 30 30 30 30 30 30 30 30 30 30 30 30 32 33 34 34 35 35 35 35 35 35 35 35 35 35 34 34 33 33 32 31 31 30 30 29 29 29 29 29 29 29 29 29 29 28 28 28 28 28 28 28 28 28 28 28 28 28 28 28 28 28 28 28 28 28 28 28 28 28 29 29 29 29 29 29 29 29 29 29 29 29 29 29 29 29 29 29 29 29 29 29 29 29 29 30 30 30 30 30 30 31 32 33 33 34 34 35 35 35 35 35 35 34 33 35 35 35 35 35 35 35 35 34 33 30 29 28 27 27 27 27 27 28 28 28 28
36 36 36 36 36 36 36 36 37 37 38 38 38 38 38 38 38 38 38 38 38 37 36 35 35 35 34 33 33 33 33 34 34 34 34 34 35 35 35 36 36 37 37 37 37 38 38 38 38 38 38 38 38 38 38 38 38 38 38 39 39 39 39 39 38 38 38 38 38 38 38 38 38 37 37 37 37 37 36 36 36 36 35 35 33 31 29 27 25 26 29 32 35 35 36 36 36 36 36 36 36 37 37 37 37 37 37 37 37 37 37 37 37 37 37 37 37 37 37 37 37 37 37 37 37 37 37 37 37 37 37 37 37 37 37 37 37 37 37 37 37 37 37 37 37 37 37 36 36 36 35 31 28 26 26 26 23 18 15 14 15 16 19 20 20 21 21 20 19 16 14 16 23 26 28 29 31 31 31 31 31 31 31 30 29 29 29 28 28 26 24 21 18 16 16 17 19 22 23 23 24 24 24 24 24 24 24 25 26 31 34 35 35 35 35 34 34 34 34 33 33 33 33 33 33 33 33 33 33 33 33 34 34 34 34 34 34 34 34 34 34 35 35 35 35 35 35 35 35 35 35 36 36 36 36 36 36 36 36 36 36 35 35 35 35 34 34 34 34 34 34 33 33 33 33 33 33 32 31 31 31 30 30 30 30 30 30 30 30 30 30 30 30 30 31 32 33 33 34 34 35 35 35 35 35 35 35 35 35 34 34 33 33 32 32 31 30 30 29 29 29 29 29 29 29 29 29 29 29 28 28 28 28 28 28 28 28 28 28 28 28 28 28 28 28 28 28 28 28 28 28 28 28 29 29 29 29 29 29 29 29 29 29 29 29 29 29 29 29 29 29 29 29 29 29 29 29 29 29 30 30 30 30 30 30 32 32 33 34 34 34 35 35 35 35 35 34 33 34 35 35 35 35 35 35 35 34 33 30 28 27 27 27 27 27 27 28 28 28 28
36 36 36 36 37 37 37 37 37 38 38 38 38 38 38 38 38 38 38 38 38 37 35 35 35 34 34 33 33 33 34 34 34 34 34 35 35 35 36 36 36 37 37 37 38 38 38 38 38 38 38 38 38 38 38 38 38 38 39 39 39 39 39 38 38 38 38 38 38 38 38 37 37 37 37 37 37 36 36 36 35 34 34 33 32 30 28 26 25 26 29 33 35 35 36 36 36 36 36 36 36 37 37 37 37 37 37 37 37 37 37 37 37 37 37 37 37 37 37 37 37 37 37 37 37 37 37 37 37 37 37 37 37 37 37 37 37 37 37 37 37 37 37 37 37 37 37 36 36 36 34 30 27 25 25 25 24 21 18 15 -32767 14 16 18 19 19 19 18 16 14 15 20 25 27 28 28 29 30 31 31 31 31 31 30 29 29 28 28 27 24 21 18 17 16 17 19 22 23 23 24 24 24 24 24 24 24 24 25 26 31 34 35 35 35 35 34 34 34 34 33 33 33 33 33 33 33 33 33 33 33 33 33 34 34 34 34 34 34 34 34 34 34 35 35 35 35 35 35 35 35 35 36 36 36 36 36 36 36 36 36 36 36 35 35 35 35 34 34 34 34 34 34 34 34 33 33 33 33 32 31 31 30 30 30 30 30 30 30 30 30 30 30 30 30 31 32 33 33 34 34 35 35 35 35 35 35 35 35 35 34 34 34 33 33 32 31 30 30 30 29 29 29 29 29 29 29 29 29 29 28 28 28 28 28 28 28 28 28 28 28 28 28 28 28 28 28 28 28 28 28 28 28 28 29 29 29 29 29 29 29 29 29 29 29 29 29 29 29 29 29 29 29 29 29 29 29 29 29 29 29 29 29 29 30 30 31 32 33 33 34 34 35 35 35 35 35 34 33 34 35 35 35 35 35 35 35 34 33 30 28 27 27 27 27 27 27 28 28 28 28
36 37 37 37 37 37 37 37 38 38 38 38 38 38 38 38 38 38 38 38 37 36 35 35 34 34 34 34 34 34 34 34 34 34 35 35 35 35 36 36 36 37 37 38 38 38 38 38 38 38 38 38 38 38 38 38 38 38 39 39 39 39 39 38 38 38 38 38 38 37 37 37 37 37 37 36 36 36 36 35 33 32 30 30 29 28 27 26 25 26 29 33 35 35 36 36 36 36 36 36 36 36 37 37 37 37 37 37 37 37 37 37 37 37 37 37 37 37 37 37 37 37 37 37 37 37 37 37 37 37 37 37 37 37 37 37 37 37 37 37 37 37 37 37 37 37 37 37 36 35 33 31 28 26 25 24 24 23 20 17 15 13 14 15 16 17 16 15 14 14 17 23 26 27 27 28 28 29 30 31 31 31 30 30 29 29 28 27 25 22 19 17 16 17 19 22 23 23 24 -32767 24 24 24 24 24 24 24 25 26 31 34 35 35 35 35 35 34 34 34 34 33 33 33 33 33 33 33 33 33 33 33 33 33 34 34 34 34 34 34 34 34 34 34 34 35 35 35 35 35 35 35 36 36 36 36 36 36 36 36 36 36 36 35 35 35 35 35 35 34 34 34 34 34 34 34 34 33 33 32 31 31 30 30 30 30 30 30 30 30 30 30 30 30 30 31 32 33 33 33 34 35 35 35 35 35 35 35 35 35 35 34 34 34 33 32 31 31 30 30 29 29 29 29 29 29 29 29 29 29 29 28 28 28 28 28 28 28 28 28 28 28 28 28 28 28 28 28 28 28 28 28 28 28 29 29 29 29 29 29 29 29 29 29 29 29 29 29 29 29 29 29 29 29 29 29 29 29 29 29 29 29 29 29 29 29 30 31 33 33 34 34 35 35 35 35 35 34 33 34 35 35 35 35 35 35 35 34 32 30 28 27 27 27 27 27 27 27 28 28 28
37 37 37 37 37 37 37 38 38 38 38 38 38 38 38 38 38 38 38 38 37 36 35 35 35 34 34 34 34 34 34 34 34 35 35 35 35 36 36 36 37 37 38 38 38 38 38 38 38 38 38 38 38 38 38 38 38 39 39 39 39 39 39 38 38 38 38 38 37 37 37 37 37 36 36 36 36 36 35 33 30 28 28 28 27 27 26 26 26 27 30 33 35 35 36 36 36 36 36 36 36 36 37 37 37 37 37 37 37 37 37 37 37 37 37 37 37 37 37 37 37 37 37 37 37 37 37 37 37 37 37 37 37 37 37 37 37 37 37 37 37 37 37 37 37 37 37 37 36 34 32 30 28 26 24 24 24 23 22 20 18 15 13 13 14 14 13 13 13 15 20 25 27 27 27 27 27 28 29 29 30 30 29 29 29 28 27 26 24 20 17 16 17 19 21 23 24 24 -32767 25 25 25 25 25 24 24 24 25 26 30 34 35 35 35 35 35 35 34 34 34 33 33 33 33 33 33 33 33 33 33 33 33 33 33 34 34 34 34 34 34 34 34 34 34 34 35 35 35 35 35 35 35 36 36 36 36 36 36 36 36 36 36 36 35 35 35 35 35 35 35 35 35 35 34 34 34 34 34 33 32 31 31 30 30 30 30 30 30 30 30 30 30 30 30 31 32 33 33 33 34 34 35 35 35 35 36 36 35 35 35 35 34 34 33 33 32 31 30 30 29 29 29 29 29 29 29 29 29 29 29 28 28 28 28 28 28 28 28 28 28 28 28 28 28 28 28 28 28 28 28 28 28 28 29 29 29 29 29 29 29 29 29 29 29 29 29 29 29 29 29 29 29 29 29 29 29 29 29 29 29 29 29 29 29 29 30 31 32 33 33 34 34 35 35 35 35 34 33 33 35 35 35 35 35 35 35 33 31 29 28 28 27 27 27 27 27 27 27 28 28
37 37 37 37 37 37 38 38 38 38 38 38 38 38 38 38 38 38 38 38 37 36 35 35 35 34 34 34 34 34 34 34 35 35 35 35 36 36 36 36 37 38 38 38 38 38 38 38 38 38 38 38 38 38 38 39 39 39 39 39 39 39 38 38 38 38 38 38 37 37 37 37 36 36 36 35 35 35 34 31 28 27 27 27 27 27 26 26 27 30 33 34 35 36 36 36 36 36 36 36 36 36 37 37 37 37 37 37 37 37 37 37 37 37 37 37 37 37 37 37 37 37 37 37 37 37 37 37 37 37 37 37 37 37 37 37 37 37 37 37 37 37 37 37 37 37 37 36 34 32 29 27 26 25 24 24 24 23 23 22 21 19 -32767 14 14 15 15 15 15 18 23 26 27 27 27 27 27 27 28 28 28 28 28 28 28 27 26 25 22 18 16 17 19 22 24 24 24 -32767 25 25 25 25 25 25 25 24 24 25 26 30 34 35 35 35 35 35 35 34 34 34 33 33 33 33 33 33 33 33 33 33 33 33 33 33 33 33 33 34 34 34 34 34 34 34 34 34 35 35 35 35 35 35 35 36 36 36 36 36 36 36 36 36 36 36 36 36 36 36 35 35 35 35 35 35 35 35 34 34 34 33 31 31 31 30 30 30 30 30 30 30 30 30 30 31 32 33 33 34 34 34 34 35 36 36 36 36 36 36 35 35 35 35 34 34 33 32 32 31 30 30 29 29 29 29 29 29 29 29 29 29 29 28 28 28 28 28 28 28 28 28 28 28 28 28 28 28 28 28 28 28 28 28 29 29 29 29 29 29 29 29 29 29 29 29 29 29 29 29 29 29 29 29 29 29 29 29 29 29 29 29 29 29 29 29 29 29 30 31 32 33 34 34 35 35 35 35 34 34 33 34 35 35 35 35 35 34 33 31 29 28 28 27 27 27 27 27 27 27 28 28
